# .PCD v0.7 - Point Cloud Data file format
VERSION 0.7
FIELDS x y z
SIZE 4 4 4
TYPE F F F
COUNT 1 1 1
WIDTH 137
HEIGHT 1
VIEWPOINT 0 0 0 1 0 0 0
POINTS 137
DATA ascii
-0.041338429 0.033438765 1.2617956
-0.030659586 0.023461699 1.2632996
-0.03083539 0.016427398 1.2620312
-0.034567043 0.012745194 1.2602671
-0.036017299 0.0036930665 1.2582648
-0.040266573 0.0019145384 1.2566732
-0.045641392 -0.013149671 1.2524461
-0.047217488 -0.020947009 1.2506225
-0.049015358 -0.023415759 1.2496526
-0.056288034 -0.027103372 1.2468172
-0.059031382 -0.030128077 1.2454655
-0.060430281 -0.03237626 1.2446543
-0.065580875 -0.033390105 1.2429223
-0.071675897 -0.036386538 1.2405624
-0.077345796 -0.039131824 1.2383744
-0.081737772 -0.039727204 1.236944
-0.086787499 -0.042097539 1.2350082
-0.090974547 -0.045979556 1.2330719
-0.096847214 -0.048845597 1.2308018
-0.10015922 -0.048806019 1.2298075
-0.10404462 -0.049122479 1.2285784
-0.1100955 -0.052097209 1.2262356
-0.11338504 -0.052056134 1.2252485
-0.12617923 -0.058446705 1.2202773
-0.13581355 -0.064955011 1.2162409
-0.13876891 -0.078148924 1.2130681
-0.14185083 -0.081344046 1.2115846
-0.14508952 -0.084625028 1.2100388
-0.14479165 -0.097783744 1.2078555
-0.1509234 -0.11072953 1.2037655
-0.15202969 -0.11450063 1.2027795
-0.15413101 -0.11723589 1.2016718
-0.16051516 -0.12033948 1.199206
-0.16339155 -0.12667766 1.1972417
-0.16323771 -0.12989256 1.1967326
-0.16624811 -0.1395229 1.1941589
-0.16940816 -0.14266427 1.192661
-0.17569965 -0.14891659 1.1896793
-0.17840536 -0.1551457 1.1877853
-0.18464956 -0.16133654 1.1848284
-0.18447736 -0.16772032 1.1837775
-0.19042492 -0.17380776 1.1809281
-0.19336498 -0.18002643 1.1789651
-0.19924852 -0.18923983 1.1755949
-0.19933848 -0.19240391 1.1750212
-0.20224912 -0.19855495 1.1730787
-0.2056831 -0.19839436 1.1720685
-0.20875713 -0.19824189 1.1711657
-0.21215838 -0.19808295 1.1701651
-0.215323 -0.19792923 1.1692351
-0.21847761 -0.19777605 1.1683081
-0.22151892 -0.19762522 1.1674149
-0.22455522 -0.19747466 1.1665232
-0.22758648 -0.19732434 1.165633
-0.23061273 -0.19717428 1.1647443
-0.23363388 -0.19702443 1.163857
-0.23960134 -0.19981679 1.1615708
-0.24260506 -0.1996652 1.1606891
-0.24560374 -0.19951387 1.1598089
-0.24867809 -0.19935945 1.1589063
-0.25166419 -0.19920875 1.1580298
-0.25464529 -0.19905832 1.1571548
-0.25762135 -0.19890812 1.1562812
-0.26059234 -0.19875821 1.1554091
-0.2634902 -0.19861126 1.1545587
-0.26638806 -0.19846433 1.1537081
-0.26941204 -0.19831243 1.1528203
-0.27242607 -0.19816108 1.1519355
-0.27827793 -0.20090945 1.1496919
-0.28126192 -0.20075426 1.1488168
-0.28135461 -0.19771194 1.1493144
-0.28164619 -0.19161808 1.150279
-0.28184456 -0.18857713 1.1507446
-0.28188527 -0.18551549 1.1512612
-0.28208357 -0.18247724 1.1517261
-0.28217712 -0.17941624 1.1522267
-0.27659935 -0.17357063 1.1549225
-0.27435848 -0.15524727 1.1587656
-0.28049102 -0.14886324 1.1580149
-0.28057119 -0.14255382 1.1590807
-0.28077132 -0.13952877 1.1595429
-0.28075927 -0.13630414 1.1601037
-0.28101239 -0.13333301 1.1605405
-0.28100121 -0.13008973 1.1611042
-0.28130651 -0.12718581 1.1615136
-0.2812961 -0.12392654 1.1620798
-0.2814436 -0.12084495 1.1625676
-0.27850288 -0.11441065 1.1645682
-0.27843311 -0.11102338 1.1651745
-0.27863622 -0.10799021 1.1656371
-0.27851361 -0.10449584 1.1662779
-0.27560651 -0.10136558 1.1676973
-0.269429 -0.097961389 1.1701527
-0.26358142 -0.095034137 1.1724259
-0.25765264 -0.092014536 1.1747395
-0.25468266 -0.088834263 1.1761867
-0.24557406 -0.085761711 1.1794707
-0.24273717 -0.082746342 1.1808491
-0.23662189 -0.076215796 1.1838257
-0.22748391 -0.073185347 1.1871113
-0.22447537 -0.073337898 1.1879942
-0.21840458 -0.070245728 1.1903634
-0.21522719 -0.066883773 1.1919045
-0.21235928 -0.063835412 1.1932981
-0.20613177 -0.060604185 1.1957386
-0.20302626 -0.057319108 1.1972448
-0.20011032 -0.057587363 1.1980798
-0.19707912 -0.057741061 1.1989695
-0.19380245 -0.057666432 1.1999727
-0.18724571 -0.054173909 1.2025579
-0.1841969 -0.054328486 1.2034527
-0.18114811 -0.054483078 1.2043475
-0.17465474 -0.051086433 1.206897
-0.16842015 -0.044542123 1.2099121
-0.16215692 -0.037967365 1.2129411
-0.15923883 -0.034865696 1.2143589
-0.15262908 -0.031384543 1.2169582
-0.14970201 -0.031674631 1.2177929
-0.13978459 -0.024780363 1.2219815
-0.13012277 -0.018113941 1.2260536
-0.12682579 -0.014686987 1.2276422
-0.12040256 -0.011407904 1.2301501
-0.11411804 -0.0048110113 1.2331893
-0.11096856 -0.0015049353 1.2347125
-0.10781437 0.0018061996 1.2362379
-0.10408309 0.0056061596 1.2380222
-0.097540952 0.012435362 1.2411795
-0.09416011 0.015945852 1.2428079
-0.087818183 0.019135222 1.2452757
-0.081258692 0.022503123 1.2478403
-0.074892208 0.025704563 1.2503176
-0.067863293 0.029446349 1.2530886
-0.058065481 0.032684617 1.2566094
-0.055573337 0.031981669 1.2572412
-0.052636355 0.031640522 1.2580701
-0.04576309 0.035221957 1.2607663
-0.043778107 0.034147047 1.2611805
