# .PCD v0.7 - Point Cloud Data file format
VERSION 0.7
FIELDS x y z
SIZE 4 4 4
TYPE F F F
COUNT 1 1 1
WIDTH 1475
HEIGHT 1
VIEWPOINT 0 0 0 1 0 0 0
POINTS 1475
DATA ascii
-0.20209125 -0.17788352 1.1850001
-0.19918153 -0.17818375 1.187
-0.19642596 -0.17863409 1.1900001
-0.19349159 -0.17893432 1.192
-0.19150382 -0.18013521 1.2
-0.19260918 -0.18433838 1.228
-0.2789571 -0.16815376 1.141
-0.27607402 -0.16830114 1.1420001
-0.27342451 -0.16859588 1.1440001
-0.27052775 -0.16874327 1.1450001
-0.26762554 -0.16889064 1.146
-0.26494864 -0.16918539 1.148
-0.26203272 -0.16933276 1.149
-0.25911129 -0.16948013 1.1500001
-0.25618443 -0.1696275 1.151
-0.25369176 -0.17006963 1.154
-0.25074843 -0.17021701 1.1550001
-0.24801402 -0.17051175 1.1570001
-0.24505702 -0.17065912 1.1580001
-0.2425123 -0.17110126 1.161
-0.23933272 -0.17110126 1.161
-0.23676337 -0.17154337 1.164
-0.2339769 -0.17183812 1.166
-0.23117951 -0.17213286 1.1680001
-0.22817594 -0.17228024 1.169
-0.22535935 -0.17257498 1.171
-0.22253181 -0.17286974 1.1730001
-0.21969333 -0.17316449 1.1750001
-0.21665964 -0.17331186 1.176
-0.21380198 -0.1736066 1.1780001
-0.21057585 -0.1736066 1.1780001
-0.20770176 -0.17390135 1.1800001
-0.20464341 -0.17404872 1.1810001
-0.20175016 -0.17434347 1.1830001
-0.19884594 -0.17463823 1.1850001
-0.19626088 -0.17522773 1.189
-0.19316696 -0.1753751 1.1900001
-0.1905463 -0.17596459 1.194
-0.18837428 -0.17699622 1.2010001
-0.27969056 -0.16546287 1.1440001
-0.27679926 -0.1656075 1.1450001
-0.27366352 -0.1656075 1.1450001
-0.27052775 -0.1656075 1.1450001
-0.26785907 -0.16589677 1.1470001
-0.26541018 -0.16633068 1.1500001
-0.26248881 -0.16647531 1.151
-0.25978726 -0.16676459 1.153
-0.25685215 -0.16690923 1.154
-0.25413141 -0.16719849 1.156
-0.25096554 -0.16719849 1.156
-0.24822839 -0.16748777 1.1580001
-0.24526864 -0.1676324 1.159
-0.24293007 -0.16821094 1.1630001
-0.23995116 -0.16835558 1.164
-0.23717017 -0.16864485 1.166
-0.23417757 -0.16878949 1.1670001
-0.23137742 -0.16907875 1.169
-0.22837111 -0.1692234 1.1700001
-0.22516689 -0.1692234 1.1700001
-0.2223421 -0.16951266 1.1720001
-0.21969333 -0.16994657 1.1750001
-0.21702811 -0.17038047 1.1780001
-0.21398348 -0.1705251 1.179
-0.21111211 -0.17081438 1.1810001
-0.20787776 -0.17081438 1.1810001
-0.20498998 -0.17110364 1.1830001
-0.2019207 -0.17124829 1.184
-0.19918153 -0.17168219 1.187
-0.19626088 -0.17197147 1.189
-0.19316696 -0.1721161 1.1900001
-0.19038671 -0.17255001 1.1930001
-0.18759003 -0.17298391 1.1960001
-0.27944607 -0.16218795 1.143
-0.27655753 -0.16232985 1.1440001
-0.27366352 -0.16247174 1.1450001
-0.27052775 -0.16247174 1.1450001
-0.26785907 -0.16275553 1.1470001
-0.26517943 -0.16303933 1.149
-0.26226074 -0.16318123 1.1500001
-0.25956193 -0.16346504 1.1520001
-0.25640699 -0.16346504 1.1520001
-0.25369176 -0.16374883 1.154
-0.25074843 -0.16389072 1.1550001
-0.24801402 -0.16417451 1.1570001
-0.24526864 -0.1644583 1.159
-0.24272119 -0.164884 1.1620001
-0.23995116 -0.16516779 1.164
-0.23696676 -0.16530968 1.1650001
-0.2339769 -0.16545159 1.166
-0.23078364 -0.16545159 1.166
-0.22798075 -0.16573538 1.1680001
-0.224782 -0.16573538 1.1680001
-0.22196268 -0.16601917 1.1700001
-0.21913241 -0.16630296 1.1720001
-0.21629117 -0.16658676 1.174
-0.21325751 -0.16672865 1.1750001
-0.21057585 -0.16715434 1.1780001
-0.20770176 -0.16743813 1.1800001
-0.20498998 -0.16786382 1.1830001
-0.20175016 -0.16786382 1.1830001
-0.19867814 -0.16800572 1.184
-0.19576569 -0.16828951 1.1860001
-0.1928423 -0.16857331 1.1880001
-0.18974838 -0.16871521 1.189
-0.18696265 -0.16914091 1.192
-0.18508515 -0.17041796 1.2010001
-0.27704102 -0.15947515 1.146
-0.27414152 -0.15961431 1.1470001
-0.27123657 -0.15975346 1.148
-0.26832613 -0.15989262 1.149
-0.265641 -0.16017094 1.151
-0.26271686 -0.1603101 1.1520001
-0.26001257 -0.16058841 1.154
-0.25685215 -0.16058841 1.154
-0.25413141 -0.16086674 1.156
-0.25096554 -0.16086674 1.156
-0.24822839 -0.16114505 1.1580001
-0.24548025 -0.16142337 1.1600001
-0.24293007 -0.16184084 1.1630001
-0.24015729 -0.16211915 1.1650001
-0.23696676 -0.16211915 1.1650001
-0.2339769 -0.16225831 1.166
-0.23078364 -0.16225831 1.166
-0.22798075 -0.16253664 1.1680001
-0.22497445 -0.16267578 1.169
-0.22215238 -0.16295411 1.171
-0.21931937 -0.16323242 1.1730001
-0.21647541 -0.16351074 1.1750001
-0.21343897 -0.16364989 1.176
-0.21057585 -0.16392821 1.1780001
-0.20787776 -0.16434568 1.1810001
-0.20533654 -0.16490231 1.1850001
-0.20209125 -0.16490231 1.1850001
-0.19901372 -0.16504146 1.1860001
-0.19593075 -0.16518062 1.187
-0.19300462 -0.16545895 1.189
-0.19006753 -0.16573727 1.1910001
-0.1874332 -0.1662939 1.1950001
-0.18493105 -0.16698968 1.2
-0.18315838 -0.16838126 1.21
-0.27969056 -0.15606381 1.1440001
-0.27655753 -0.15606381 1.1440001
-0.27366352 -0.15620023 1.1450001
-0.2710003 -0.15647307 1.1470001
-0.26832613 -0.15674591 1.149
-0.265641 -0.15701875 1.151
-0.26271686 -0.15715517 1.1520001
-0.25978726 -0.15729159 1.153
-0.25662959 -0.15729159 1.153
-0.25369176 -0.15742801 1.154
-0.25096554 -0.15770085 1.156
-0.24801402 -0.15783727 1.1570001
-0.24548025 -0.15824653 1.1600001
-0.2425123 -0.15838295 1.161
-0.23974502 -0.15865579 1.1630001
-0.23655997 -0.15865579 1.1630001
-0.23357558 -0.15879221 1.164
-0.23058571 -0.15892862 1.1650001
-0.22798075 -0.15933788 1.1680001
-0.22497445 -0.1594743 1.169
-0.22215238 -0.15974714 1.171
-0.21913241 -0.15988356 1.1720001
-0.2159227 -0.15988356 1.1720001
-0.213076 -0.1601564 1.174
-0.21021833 -0.16042924 1.176
-0.20770176 -0.1609749 1.1800001
-0.2048167 -0.16124775 1.182
-0.20175016 -0.16138417 1.1830001
-0.19867814 -0.16152059 1.184
-0.19560064 -0.16165701 1.1850001
-0.19267997 -0.16192985 1.187
-0.18974838 -0.1622027 1.189
-0.1871195 -0.16274837 1.1930001
-0.18431461 -0.16315763 1.1960001
-0.18119055 -0.16329405 1.197
-0.18192546 -0.16697736 1.2240001
-0.27704102 -0.15319815 1.146
-0.27414152 -0.15333183 1.1470001
-0.27170908 -0.15373288 1.1500001
-0.26879317 -0.15386656 1.151
-0.26610258 -0.15413393 1.153
-0.26294491 -0.15413393 1.153
-0.26001257 -0.15426761 1.154
-0.25707471 -0.15440129 1.1550001
-0.25413141 -0.15453497 1.156
-0.25161684 -0.15493602 1.159
-0.24865709 -0.15506969 1.1600001
-0.24569188 -0.15520337 1.161
-0.24272119 -0.15533705 1.1620001
-0.23995116 -0.15560441 1.164
-0.23655997 -0.15547073 1.1630001
-0.23377623 -0.1557381 1.1650001
-0.23117951 -0.15613914 1.1680001
-0.22837111 -0.15640649 1.1700001
-0.2255518 -0.15667386 1.1720001
-0.2223421 -0.15667386 1.1720001
-0.21931937 -0.15680754 1.1730001
-0.21629117 -0.15694122 1.174
-0.21343897 -0.15720858 1.176
-0.21057585 -0.15747595 1.1780001
-0.20770176 -0.1577433 1.1800001
-0.2048167 -0.15801066 1.182
-0.20175016 -0.15814434 1.1830001
-0.19884594 -0.15841171 1.1850001
-0.19576569 -0.15854539 1.1860001
-0.19267997 -0.15867907 1.187
-0.18974838 -0.15894644 1.189
-0.18727635 -0.15961485 1.194
-0.18446872 -0.16001588 1.197
-0.1814933 -0.16028324 1.199
-0.17925008 -0.161219 1.2060001
-0.27993503 -0.14992872 1.1450001
-0.27679926 -0.14992872 1.1450001
-0.27366352 -0.14992872 1.1450001
-0.27147284 -0.15045248 1.149
-0.26855963 -0.15058343 1.1500001
-0.26587179 -0.15084532 1.1520001
-0.26294491 -0.15097626 1.153
-0.26001257 -0.15110721 1.154
-0.25707471 -0.15123814 1.1550001
-0.25413141 -0.15136909 1.156
-0.25161684 -0.15176192 1.159
-0.24844274 -0.15176192 1.159
-0.24548025 -0.15189286 1.1600001
-0.24230342 -0.15189286 1.1600001
-0.23953888 -0.15215474 1.1620001
-0.23635656 -0.15215474 1.1620001
-0.23377623 -0.15254757 1.1650001
-0.23098157 -0.15280944 1.1670001
-0.22837111 -0.15320228 1.1700001
-0.22535935 -0.15333322 1.171
-0.2223421 -0.15346415 1.1720001
-0.21894543 -0.15333322 1.171
-0.2159227 -0.15346415 1.1720001
-0.2128945 -0.1535951 1.1730001
-0.21021833 -0.15398793 1.176
-0.20717369 -0.15411887 1.177
-0.20429686 -0.15438075 1.179
-0.20140906 -0.15464263 1.1810001
-0.19851033 -0.15490451 1.1830001
-0.19527049 -0.15490451 1.1830001
-0.192193 -0.15503547 1.184
-0.18942919 -0.15542829 1.187
-0.1868058 -0.15595207 1.1910001
-0.18416052 -0.15647583 1.1950001
-0.18119055 -0.15673772 1.197
-0.17850693 -0.15726148 1.2010001
-0.17798977 -0.15974937 1.22
-0.27776626 -0.14730577 1.149
-0.27485853 -0.14743398 1.1500001
-0.2724179 -0.1478186 1.153
-0.26926026 -0.1478186 1.153
-0.26633337 -0.1479468 1.154
-0.26317298 -0.1479468 1.154
-0.26046318 -0.14820321 1.156
-0.25751987 -0.1483314 1.1570001
-0.25479093 -0.14858782 1.159
-0.25183392 -0.14871602 1.1600001
-0.24865709 -0.14871602 1.1600001
-0.24548025 -0.14871602 1.1600001
-0.24230342 -0.14871602 1.1600001
-0.23953888 -0.14897242 1.1620001
-0.23676337 -0.14922883 1.164
-0.23417757 -0.14961344 1.1670001
-0.23117951 -0.14974165 1.1680001
-0.22837111 -0.14999805 1.1700001
-0.2255518 -0.15025446 1.1720001
-0.22253181 -0.15038265 1.1730001
-0.21950635 -0.15051086 1.174
-0.21647541 -0.15063907 1.1750001
-0.21362048 -0.15089548 1.177
-0.2107546 -0.15115188 1.179
-0.20752573 -0.15115188 1.179
-0.20464341 -0.15140828 1.1810001
-0.2015796 -0.15153649 1.182
-0.19851033 -0.15166469 1.1830001
-0.19543557 -0.1517929 1.184
-0.19235533 -0.15192109 1.1850001
-0.18974838 -0.15243392 1.189
-0.1871195 -0.15294674 1.1930001
-0.18416052 -0.15320314 1.1950001
-0.18134193 -0.15358774 1.1980001
-0.17850693 -0.15397236 1.2010001
-0.17653084 -0.15512618 1.21
-0.2775245 -0.1440336 1.148
-0.27438053 -0.1440336 1.148
-0.27194536 -0.14440998 1.151
-0.26879317 -0.14440998 1.151
-0.26610258 -0.14466093 1.153
-0.26294491 -0.14466093 1.153
-0.26001257 -0.14478639 1.154
-0.25707471 -0.14491186 1.1550001
-0.25435126 -0.14516279 1.1570001
-0.25118265 -0.14516279 1.1570001
-0.24801402 -0.14516279 1.1570001
-0.24484539 -0.14516279 1.1570001
-0.24167678 -0.14516279 1.1570001
-0.23912658 -0.14553918 1.1600001
-0.23635656 -0.14579011 1.1620001
-0.23357558 -0.14604104 1.164
-0.23038779 -0.14604104 1.164
-0.22778556 -0.14641744 1.1670001
-0.22497445 -0.14666836 1.169
-0.22215238 -0.1469193 1.171
-0.21894543 -0.1469193 1.171
-0.21629117 -0.14729568 1.174
-0.21343897 -0.14754662 1.176
-0.21057585 -0.14779754 1.1780001
-0.20734972 -0.14779754 1.1780001
-0.20429686 -0.14792301 1.179
-0.201068 -0.14792301 1.179
-0.19817472 -0.14817394 1.1810001
-0.19510543 -0.1482994 1.182
-0.19235533 -0.1486758 1.1850001
-0.18942919 -0.14892672 1.187
-0.18649212 -0.14917767 1.189
-0.18354405 -0.14942859 1.1910001
-0.18058507 -0.14967953 1.1930001
-0.17791238 -0.15018138 1.197
-0.17565548 -0.15105963 1.2040001
-0.17708224 -0.15519997 1.2370001
-0.27873325 -0.14150326 1.153
-0.27533656 -0.14138053 1.1520001
-0.2724179 -0.14150326 1.153
-0.26949379 -0.14162599 1.154
-0.26656416 -0.14174871 1.1550001
-0.26317298 -0.14162599 1.154
-0.26023787 -0.14174871 1.1550001
-0.25751987 -0.14199416 1.1570001
-0.25479093 -0.14223962 1.159
-0.25161684 -0.14223962 1.159
-0.24844274 -0.14223962 1.159
-0.24526864 -0.14223962 1.159
-0.24230342 -0.14236234 1.1600001
-0.23933272 -0.14248507 1.161
-0.23676337 -0.14285325 1.164
-0.2339769 -0.1430987 1.166
-0.23098157 -0.14322142 1.1670001
-0.22798075 -0.14334415 1.1680001
-0.22516689 -0.1435896 1.1700001
-0.2223421 -0.14383505 1.1720001
-0.21931937 -0.14395778 1.1730001
-0.21647541 -0.14420323 1.1750001
-0.21362048 -0.14444868 1.177
-0.21057585 -0.14457141 1.1780001
-0.20770176 -0.14481686 1.1800001
-0.20464341 -0.14493959 1.1810001
-0.20140906 -0.14493959 1.1810001
-0.19834252 -0.14506231 1.182
-0.19543557 -0.14530776 1.184
-0.19267997 -0.14567594 1.187
-0.18958879 -0.14579867 1.1880001
-0.18649212 -0.14592141 1.189
-0.18354405 -0.14616686 1.1910001
-0.18073645 -0.14653504 1.194
-0.17791238 -0.14690322 1.197
-0.17521779 -0.14739412 1.2010001
-0.17336023 -0.14862138 1.2110001
-0.17397536 -0.15205771 1.2390001
-0.2784915 -0.13822562 1.1520001
-0.27509755 -0.13810562 1.151
-0.27218163 -0.13822562 1.1520001
-0.26926026 -0.1383456 1.153
-0.26633337 -0.13846558 1.154
-0.26317298 -0.13846558 1.154
-0.26001257 -0.13846558 1.154
-0.25729731 -0.13870557 1.156
-0.25413141 -0.13870557 1.156
-0.25096554 -0.13870557 1.156
-0.24801402 -0.13882555 1.1570001
-0.24505702 -0.13894553 1.1580001
-0.24209455 -0.13906552 1.159
-0.23892045 -0.13906552 1.159
-0.23635656 -0.13942549 1.1620001
-0.23337491 -0.13954547 1.1630001
-0.23058571 -0.13978544 1.1650001
-0.22759037 -0.13990544 1.166
-0.22458956 -0.14002542 1.1670001
-0.22177297 -0.14026539 1.169
-0.21875845 -0.14038537 1.1700001
-0.21610694 -0.14074534 1.1730001
-0.213076 -0.14086533 1.174
-0.21003959 -0.14098531 1.1750001
-0.20717369 -0.14122529 1.177
-0.20429686 -0.14146526 1.179
-0.20123854 -0.14158525 1.1800001
-0.19817472 -0.14170524 1.1810001
-0.19510543 -0.14182523 1.182
-0.192193 -0.1420652 1.184
-0.18911003 -0.14218518 1.1850001
-0.18617842 -0.14242516 1.187
-0.18323585 -0.14266515 1.189
-0.18043371 -0.14302512 1.192
-0.1774665 -0.14326508 1.194
-0.17463422 -0.14362505 1.197
-0.17192867 -0.14410499 1.2010001
-0.17046496 -0.14566483 1.2140001
-0.27921674 -0.13542242 1.1550001
-0.27629259 -0.13553968 1.156
-0.27336299 -0.13565692 1.1570001
-0.27042788 -0.13577418 1.1580001
-0.26702574 -0.13565692 1.1570001
-0.26385713 -0.13565692 1.1570001
-0.26068851 -0.13565692 1.1570001
-0.25796503 -0.13589142 1.159
-0.25479093 -0.13589142 1.159
-0.25161684 -0.13589142 1.159
-0.24844274 -0.13589142 1.159
-0.24548025 -0.13600866 1.1600001
-0.24272119 -0.13624316 1.1620001
-0.23933272 -0.13612592 1.161
-0.23655997 -0.13636042 1.1630001
-0.23377623 -0.13659492 1.1650001
-0.23098157 -0.13682941 1.1670001
-0.22798075 -0.13694666 1.1680001
-0.22497445 -0.13706391 1.169
-0.22196268 -0.13718116 1.1700001
-0.21931937 -0.1375329 1.1730001
-0.21647541 -0.1377674 1.1750001
-0.21343897 -0.13788465 1.176
-0.21039708 -0.1380019 1.177
-0.20734972 -0.13811915 1.1780001
-0.20429686 -0.13823639 1.179
-0.20140906 -0.13847089 1.1810001
-0.19834252 -0.13858815 1.182
-0.19543557 -0.13882263 1.184
-0.19251764 -0.13905713 1.1860001
-0.18911003 -0.13893989 1.1850001
-0.18633527 -0.13929163 1.1880001
-0.18338998 -0.13952614 1.1900001
-0.18058507 -0.13987789 1.1930001
-0.17761512 -0.14011239 1.1950001
-0.17463422 -0.14034688 1.197
-0.17164236 -0.14058137 1.199
-0.16892038 -0.14105037 1.2030001
-0.17071985 -0.14538857 1.24
-0.27873325 -0.13203026 1.153
-0.27605358 -0.13225928 1.1550001
-0.27312672 -0.13237379 1.156
-0.27019435 -0.13248831 1.1570001
-0.26702574 -0.13248831 1.1570001
-0.26362908 -0.13237379 1.156
-0.26046318 -0.13237379 1.156
-0.25774246 -0.13260281 1.1580001
-0.25435126 -0.13248831 1.1570001
-0.25139973 -0.13260281 1.1580001
-0.24822839 -0.13260281 1.1580001
-0.24548025 -0.13283184 1.1600001
-0.24230342 -0.13283184 1.1600001
-0.23912658 -0.13283184 1.1600001
-0.23615314 -0.13294634 1.161
-0.23317425 -0.13306086 1.1620001
-0.23018986 -0.13317536 1.1630001
-0.22739518 -0.13340439 1.1650001
-0.22458956 -0.1336334 1.1670001
-0.22177297 -0.13386242 1.169
-0.21913241 -0.13420595 1.1720001
-0.21629117 -0.13443497 1.174
-0.21343897 -0.134664 1.176
-0.21039708 -0.1347785 1.177
-0.20717369 -0.1347785 1.177
-0.20412359 -0.13489302 1.1780001
-0.20089744 -0.13489302 1.1780001
-0.19817472 -0.13523655 1.1810001
-0.19510543 -0.13535105 1.182
-0.192193 -0.13558008 1.184
-0.18911003 -0.13569458 1.1850001
-0.18617842 -0.13592361 1.187
-0.18308175 -0.13603811 1.1880001
-0.18013097 -0.13626714 1.1900001
-0.17716923 -0.13649616 1.192
-0.17448834 -0.1369542 1.1960001
-0.17135605 -0.13706872 1.197
-0.16877997 -0.13764127 1.202
-0.16686489 -0.13878636 1.212
-0.27945846 -0.12920791 1.156
-0.27629259 -0.12920791 1.156
-0.27312672 -0.12920791 1.156
-0.27019435 -0.12931968 1.1570001
-0.26725653 -0.12943146 1.1580001
-0.26408517 -0.12943146 1.1580001
-0.26113912 -0.12954323 1.159
-0.25796503 -0.12954323 1.159
-0.25501075 -0.129655 1.1600001
-0.25183392 -0.129655 1.1600001
-0.24887145 -0.12976676 1.161
-0.24590351 -0.12987854 1.1620001
-0.24272119 -0.12987854 1.1620001
-0.23974502 -0.12999031 1.1630001
-0.23655997 -0.12999031 1.1630001
-0.23357558 -0.13010208 1.164
-0.23058571 -0.13021386 1.1650001
-0.22759037 -0.13032563 1.166
-0.22497445 -0.13066094 1.169
-0.22215238 -0.13088448 1.171
-0.21950635 -0.13121979 1.174
-0.21647541 -0.13133156 1.1750001
-0.21362048 -0.13155511 1.177
-0.21057585 -0.13166688 1.1780001
-0.20734972 -0.13166688 1.1780001
-0.20429686 -0.13177866 1.179
-0.20123854 -0.13189042 1.1800001
-0.19834252 -0.13211396 1.182
-0.19543557 -0.13233751 1.184
-0.19251764 -0.13256104 1.1860001
-0.18942919 -0.13267282 1.187
-0.18649212 -0.13289638 1.189
-0.18338998 -0.13300815 1.1900001
-0.18028232 -0.13311991 1.1910001
-0.17731786 -0.13334346 1.1930001
-0.17448834 -0.13367878 1.1960001
-0.17178552 -0.13412586 1.2
-0.16892038 -0.13446118 1.2030001
-0.1667272 -0.13535534 1.2110001
-0.16894318 -0.13993797 1.2520001
-0.27873325 -0.12571493 1.153
-0.27581459 -0.12582396 1.154
-0.27265418 -0.12582396 1.154
-0.26972729 -0.12593299 1.1550001
-0.26679495 -0.12604202 1.156
-0.26385713 -0.12615107 1.1570001
-0.26091382 -0.1262601 1.1580001
-0.25796503 -0.12636913 1.159
-0.25501075 -0.12647817 1.1600001
-0.25183392 -0.12647817 1.1600001
-0.24887145 -0.1265872 1.161
-0.24548025 -0.12647817 1.1600001
-0.24230342 -0.12647817 1.1600001
-0.23933272 -0.1265872 1.161
-0.23615314 -0.1265872 1.161
-0.23337491 -0.12680526 1.1630001
-0.22999193 -0.12669623 1.1620001
-0.2272 -0.12691429 1.164
-0.22458956 -0.12724139 1.1670001
-0.22215238 -0.12767752 1.171
-0.21931937 -0.12789558 1.1730001
-0.21610694 -0.12789558 1.1730001
-0.213076 -0.12800461 1.174
-0.21021833 -0.12822269 1.176
-0.20717369 -0.12833172 1.177
-0.20429686 -0.12854978 1.179
-0.20123854 -0.12865882 1.1800001
-0.19817472 -0.12876785 1.1810001
-0.19510543 -0.12887688 1.182
-0.19235533 -0.12920398 1.1850001
-0.1892696 -0.12931301 1.1860001
-0.18633527 -0.12953107 1.1880001
-0.18308175 -0.12953107 1.1880001
-0.18013097 -0.12974915 1.1900001
-0.17716923 -0.12996721 1.192
-0.17434244 -0.13029431 1.1950001
-0.17149921 -0.1306214 1.1980001
-0.16877997 -0.13105755 1.202
-0.16603883 -0.13149367 1.2060001
-0.16435526 -0.13280207 1.2180001
-0.27945846 -0.12287614 1.156
-0.27629259 -0.12287614 1.156
-0.27312672 -0.12287614 1.156
-0.26996082 -0.12287614 1.156
-0.26725653 -0.12308873 1.1580001
-0.26431322 -0.12319503 1.159
-0.26158977 -0.12340762 1.161
-0.25863275 -0.12351391 1.1620001
-0.25567028 -0.1236202 1.1630001
-0.25248522 -0.1236202 1.1630001
-0.24930018 -0.1236202 1.1630001
-0.24590351 -0.12351391 1.1620001
-0.24272119 -0.12351391 1.1620001
-0.23974502 -0.1236202 1.1630001
-0.23676337 -0.1237265 1.164
-0.23377623 -0.12383279 1.1650001
-0.23058571 -0.12383279 1.1650001
-0.22778556 -0.12404538 1.1670001
-0.22497445 -0.12425797 1.169
-0.22253181 -0.12468314 1.1730001
-0.21969333 -0.12489574 1.1750001
-0.21647541 -0.12489574 1.1750001
-0.21343897 -0.12500203 1.176
-0.21057585 -0.12521462 1.1780001
-0.20770176 -0.1254272 1.1800001
-0.20464341 -0.12553349 1.1810001
-0.20175016 -0.12574609 1.1830001
-0.19884594 -0.12595867 1.1850001
-0.19593075 -0.12617126 1.187
-0.19267997 -0.12617126 1.187
-0.18958879 -0.12627755 1.1880001
-0.18649212 -0.12638386 1.189
-0.18354405 -0.12659645 1.1910001
-0.18043371 -0.12670274 1.192
-0.1774665 -0.12691534 1.194
-0.17448834 -0.12712792 1.1960001
-0.17164236 -0.1274468 1.199
-0.16877997 -0.12776569 1.202
-0.16603883 -0.12819086 1.2060001
-0.16368057 -0.12893492 1.2130001
-0.27945846 -0.11971027 1.156
-0.27653161 -0.11981382 1.1570001
-0.27336299 -0.11981382 1.1570001
-0.27066144 -0.12002093 1.159
-0.26748735 -0.12002093 1.159
-0.26431322 -0.12002093 1.159
-0.26136443 -0.12012449 1.1600001
-0.25841019 -0.12022804 1.161
-0.25567028 -0.12043516 1.1630001
-0.25248522 -0.12043516 1.1630001
-0.24930018 -0.12043516 1.1630001
-0.24590351 -0.1203316 1.1620001
-0.24272119 -0.1203316 1.1620001
-0.23974502 -0.12043516 1.1630001
-0.23655997 -0.12043516 1.1630001
-0.23377623 -0.12064226 1.1650001
-0.23038779 -0.12053871 1.164
-0.22778556 -0.12084937 1.1670001
-0.22497445 -0.12105648 1.169
-0.2223421 -0.12136715 1.1720001
-0.21950635 -0.12157426 1.174
-0.21647541 -0.12167782 1.1750001
-0.21343897 -0.12178137 1.176
-0.21057585 -0.12198848 1.1780001
-0.20770176 -0.12219559 1.1800001
-0.20464341 -0.12229915 1.1810001
-0.2015796 -0.12240271 1.182
-0.19867814 -0.12260982 1.184
-0.19560064 -0.12271337 1.1850001
-0.19251764 -0.12281693 1.1860001
-0.18942919 -0.12292048 1.187
-0.18617842 -0.12292048 1.187
-0.18323585 -0.1231276 1.189
-0.18028232 -0.12333471 1.1910001
-0.17731786 -0.12354182 1.1930001
-0.17434244 -0.12374894 1.1950001
-0.17135605 -0.12395605 1.197
-0.16835873 -0.12416315 1.199
-0.16548811 -0.12447382 1.202
-0.16314082 -0.12519871 1.2090001
-0.16141619 -0.12644137 1.2210001
-0.27772665 -0.11714929 1.1620001
-0.27430806 -0.11704846 1.161
-0.27112848 -0.11704846 1.161
-0.26817968 -0.11714929 1.1620001
-0.26499739 -0.11714929 1.1620001
-0.26204038 -0.1172501 1.1630001
-0.25885534 -0.1172501 1.1630001
-0.25610995 -0.11745173 1.1650001
-0.25291941 -0.11745173 1.1650001
-0.24994324 -0.11755255 1.166
-0.24653836 -0.11745173 1.1650001
-0.24355671 -0.11755255 1.166
-0.24036343 -0.11755255 1.166
-0.23717017 -0.11755255 1.166
-0.23377623 -0.11745173 1.1650001
-0.23098157 -0.11765337 1.1670001
-0.22837111 -0.11795582 1.1700001
-0.2255518 -0.11815745 1.1720001
-0.22272153 -0.11835908 1.174
-0.21969333 -0.1184599 1.1750001
-0.21684387 -0.11866153 1.177
-0.21380198 -0.11876235 1.1780001
-0.21093337 -0.11896398 1.1800001
-0.20805378 -0.11916561 1.182
-0.20498998 -0.11926644 1.1830001
-0.2019207 -0.11936725 1.184
-0.19901372 -0.11956888 1.1860001
-0.19593075 -0.1196697 1.187
-0.1928423 -0.11977052 1.1880001
-0.18990797 -0.11997216 1.1900001
-0.1868058 -0.12007298 1.1910001
-0.18369818 -0.1201738 1.192
-0.18043371 -0.1201738 1.192
-0.1774665 -0.12037542 1.194
-0.17448834 -0.12057706 1.1960001
-0.17164236 -0.12087951 1.199
-0.16863956 -0.12108114 1.2010001
-0.16562578 -0.12128278 1.2030001
-0.16287094 -0.12168604 1.207
-0.16035859 -0.12229095 1.2130001
-0.15807229 -0.12309748 1.2210001
-0.27772665 -0.11396697 1.1620001
-0.27430806 -0.11386889 1.161
-0.27159554 -0.11406504 1.1630001
-0.26817968 -0.11396697 1.1620001
-0.26499739 -0.11396697 1.1620001
-0.26181507 -0.11396697 1.1620001
-0.25863275 -0.11396697 1.1620001
-0.25589013 -0.11416312 1.164
-0.25270233 -0.11416312 1.164
-0.24972889 -0.1142612 1.1650001
-0.24632674 -0.11416312 1.164
-0.24334782 -0.1142612 1.1650001
-0.24036343 -0.11435928 1.166
-0.23717017 -0.11435928 1.166
-0.23377623 -0.1142612 1.1650001
-0.23078364 -0.11435928 1.166
-0.22798075 -0.11455543 1.1680001
-0.22516689 -0.11475159 1.1700001
-0.22196268 -0.11475159 1.1700001
-0.21894543 -0.11484967 1.171
-0.21610694 -0.11504583 1.1730001
-0.21343897 -0.11534006 1.176
-0.21057585 -0.11553622 1.1780001
-0.20770176 -0.11573237 1.1800001
-0.20464341 -0.11583045 1.1810001
-0.2015796 -0.11592853 1.182
-0.19851033 -0.11602661 1.1830001
-0.19543557 -0.11612468 1.184
-0.19267997 -0.11641892 1.187
-0.18974838 -0.11661509 1.189
-0.1868058 -0.11681124 1.1910001
-0.18323585 -0.11661509 1.189
-0.17997959 -0.11661509 1.189
-0.17687197 -0.11671317 1.1900001
-0.17405064 -0.1170074 1.1930001
-0.17121291 -0.11730163 1.1960001
-0.1682183 -0.11749779 1.1980001
-0.16535044 -0.11779203 1.2010001
-0.16233119 -0.11798818 1.2030001
-0.15943319 -0.11828241 1.2060001
-0.15664822 -0.11867473 1.21
-0.15384135 -0.11906704 1.2140001
-0.27868268 -0.11116602 1.166
-0.2747806 -0.11087999 1.1630001
-0.27182907 -0.11097533 1.164
-0.26887205 -0.11107067 1.1650001
-0.26590958 -0.11116602 1.166
-0.26271632 -0.11116602 1.166
-0.25952306 -0.11116602 1.166
-0.25654963 -0.11126135 1.1670001
-0.25357074 -0.11135669 1.1680001
-0.25037196 -0.11135669 1.1680001
-0.24696161 -0.11126135 1.1670001
-0.24376559 -0.11126135 1.1670001
-0.24077573 -0.11135669 1.1680001
-0.23778039 -0.11145203 1.169
-0.23437825 -0.11135669 1.1680001
-0.23137742 -0.11145203 1.169
-0.22837111 -0.11154737 1.1700001
-0.22574426 -0.11183339 1.1730001
-0.2223421 -0.11173805 1.1720001
-0.21950635 -0.11192872 1.174
-0.21647541 -0.11202407 1.1750001
-0.21380198 -0.11231008 1.1780001
-0.2107546 -0.11240543 1.179
-0.20805378 -0.11269144 1.182
-0.2048167 -0.11269144 1.182
-0.20209125 -0.11297746 1.1850001
-0.19884594 -0.11297746 1.1850001
-0.19593075 -0.11316814 1.187
-0.1928423 -0.11326348 1.1880001
-0.19006753 -0.11354951 1.1910001
-0.18696265 -0.11364485 1.192
-0.18354405 -0.11354951 1.1910001
-0.17997959 -0.11335883 1.189
-0.17687197 -0.11345417 1.1900001
-0.17419654 -0.11383552 1.194
-0.17149921 -0.11421688 1.1980001
-0.16849914 -0.11440756 1.2
-0.16548811 -0.11459824 1.202
-0.16246612 -0.11478892 1.2040001
-0.15956539 -0.11507493 1.207
-0.15651876 -0.11526562 1.2090001
-0.15270083 -0.11488426 1.205
-0.27844366 -0.10788015 1.1650001
-0.2747806 -0.10769494 1.1630001
-0.27182907 -0.10778754 1.164
-0.26864129 -0.10778754 1.164
-0.26590958 -0.10797274 1.166
-0.26294163 -0.10806534 1.1670001
-0.25996822 -0.10815795 1.1680001
-0.25676948 -0.10815795 1.1680001
-0.25378782 -0.10825054 1.169
-0.25058633 -0.10825054 1.169
-0.24717323 -0.10815795 1.1680001
-0.24376559 -0.10806534 1.1670001
-0.24056959 -0.10806534 1.1670001
-0.23757699 -0.10815795 1.1680001
-0.23437825 -0.10815795 1.1680001
-0.23117951 -0.10815795 1.1680001
-0.22798075 -0.10815795 1.1680001
-0.22535935 -0.10843575 1.171
-0.22196268 -0.10834315 1.1700001
-0.21931937 -0.10862095 1.1730001
-0.21629117 -0.10871355 1.174
-0.21362048 -0.10899135 1.177
-0.2107546 -0.10917655 1.179
-0.20787776 -0.10936175 1.1810001
-0.20464341 -0.10936175 1.1810001
-0.20175016 -0.10954695 1.1830001
-0.19867814 -0.10963956 1.184
-0.19576569 -0.10982475 1.1860001
-0.19267997 -0.10991736 1.187
-0.18974838 -0.11010257 1.189
-0.18649212 -0.11010257 1.189
-0.18338998 -0.11019517 1.1900001
-0.18013097 -0.11019517 1.1900001
-0.17702061 -0.11028777 1.1910001
-0.17405064 -0.11047297 1.1930001
-0.17121291 -0.11075077 1.1960001
-0.16835873 -0.11102857 1.199
-0.16535044 -0.11121378 1.2010001
-0.16246612 -0.11149158 1.2040001
-0.15956539 -0.11176939 1.207
-0.15651876 -0.11195458 1.2090001
-0.15371461 -0.11232498 1.2130001
-0.14692108 -0.10973216 1.1850001
-0.27963868 -0.10513892 1.1700001
-0.27572566 -0.10486934 1.1670001
-0.27276319 -0.1049592 1.1680001
-0.26979524 -0.10504906 1.169
-0.26704985 -0.10522878 1.171
-0.26406822 -0.10531865 1.1720001
-0.26085851 -0.10531865 1.1720001
-0.25742897 -0.10522878 1.171
-0.25443912 -0.10531865 1.1720001
-0.25122941 -0.10531865 1.1720001
-0.24801971 -0.10531865 1.1720001
-0.24481 -0.10531865 1.1720001
-0.24139416 -0.10522878 1.171
-0.23818719 -0.10522878 1.171
-0.23477957 -0.10513892 1.1700001
-0.2319712 -0.10531865 1.1720001
-0.2285663 -0.10522878 1.171
-0.22574426 -0.10540851 1.1730001
-0.22272153 -0.10549837 1.174
-0.21988028 -0.1056781 1.176
-0.21665964 -0.1056781 1.176
-0.21380198 -0.10585782 1.1780001
-0.2107546 -0.10594768 1.179
-0.20787776 -0.1061274 1.1810001
-0.20498998 -0.10630713 1.1830001
-0.20209125 -0.10648686 1.1850001
-0.19901372 -0.10657672 1.1860001
-0.19593075 -0.10666658 1.187
-0.1928423 -0.10675644 1.1880001
-0.18974838 -0.10684631 1.189
-0.18664896 -0.10693617 1.1900001
-0.18369818 -0.1071159 1.192
-0.18073645 -0.10729562 1.194
-0.17776376 -0.10747535 1.1960001
-0.17463422 -0.10756521 1.197
-0.17164236 -0.10774493 1.199
-0.16863956 -0.10792466 1.2010001
-0.16576347 -0.10819424 1.2040001
-0.16287094 -0.10846383 1.207
-0.1598298 -0.10864355 1.2090001
-0.15677768 -0.10882328 1.2110001
-0.15396807 -0.10918272 1.215
-0.15212841 -0.11026108 1.2270001
-0.27690703 -0.10210895 1.1720001
-0.27369732 -0.10210895 1.1720001
-0.27025682 -0.10202182 1.171
-0.26727793 -0.10210895 1.1720001
-0.26429352 -0.10219607 1.1730001
-0.2610811 -0.10219607 1.1730001
-0.25786865 -0.10219607 1.1730001
-0.25465623 -0.10219607 1.1730001
-0.25144377 -0.10219607 1.1730001
-0.24823134 -0.10219607 1.1730001
-0.2450189 -0.10219607 1.1730001
-0.24139416 -0.10202182 1.171
-0.23818719 -0.10202182 1.171
-0.23477957 -0.1019347 1.1700001
-0.2319712 -0.10210895 1.1720001
-0.22876151 -0.10210895 1.1720001
-0.2255518 -0.10210895 1.1720001
-0.22253181 -0.10219607 1.1730001
-0.21950635 -0.10228319 1.174
-0.21647541 -0.10237031 1.1750001
-0.21343897 -0.10245744 1.176
-0.21057585 -0.10263169 1.1780001
-0.20770176 -0.10280593 1.1800001
-0.20498998 -0.1030673 1.1830001
-0.2019207 -0.10315443 1.184
-0.19901372 -0.10332868 1.1860001
-0.19593075 -0.10341579 1.187
-0.19300462 -0.10359006 1.189
-0.18990797 -0.10367718 1.1900001
-0.1868058 -0.1037643 1.1910001
-0.18369818 -0.10385142 1.192
-0.18073645 -0.10402567 1.194
-0.17761512 -0.1041128 1.1950001
-0.17434244 -0.1041128 1.1950001
-0.17135605 -0.10428704 1.197
-0.1682183 -0.10437416 1.1980001
-0.16535044 -0.10463554 1.2010001
-0.16246612 -0.1048969 1.2040001
-0.15943319 -0.10507115 1.2060001
-0.1563893 -0.1052454 1.2080001
-0.15346117 -0.10550677 1.2110001
-0.15113653 -0.10620376 1.2190001
-0.27950597 -0.099827476 1.1830001
-0.27579907 -0.099658705 1.1810001
-0.27210316 -0.099489942 1.179
-0.26841816 -0.099321172 1.177
-0.26519477 -0.099321172 1.177
-0.26152626 -0.099152401 1.1750001
-0.25852814 -0.099236786 1.176
-0.2553075 -0.099236786 1.176
-0.25208685 -0.099236786 1.176
-0.24886619 -0.099236786 1.176
-0.24585442 -0.099321172 1.177
-0.24242488 -0.099236786 1.176
-0.23920423 -0.099236786 1.176
-0.23558225 -0.099068016 1.174
-0.232565 -0.099152401 1.1750001
-0.22934708 -0.099152401 1.1750001
-0.22612916 -0.099152401 1.1750001
-0.22272153 -0.099068016 1.174
-0.21969333 -0.099152401 1.1750001
-0.21684387 -0.099321172 1.177
-0.21380198 -0.099405557 1.1780001
-0.21093337 -0.09957432 1.1800001
-0.20805378 -0.099743091 1.182
-0.20533654 -0.099996246 1.1850001
-0.20226176 -0.10008063 1.1860001
-0.19918153 -0.10016502 1.187
-0.19626088 -0.10033379 1.189
-0.19316696 -0.10041818 1.1900001
-0.19006753 -0.10050257 1.1910001
-0.18696265 -0.10058695 1.192
-0.18385229 -0.10067134 1.1930001
-0.18088782 -0.10084011 1.1950001
-0.17776376 -0.10092449 1.1960001
-0.17463422 -0.10100888 1.197
-0.17164236 -0.10117764 1.199
-0.16849914 -0.10126203 1.2
-0.16576347 -0.10159957 1.2040001
-0.16287094 -0.10185272 1.207
-0.1598298 -0.10202149 1.2090001
-0.15677768 -0.10219026 1.2110001
-0.15384135 -0.10244341 1.2140001
-0.15101255 -0.10278095 1.2180001
-0.14925306 -0.10387797 1.2310001
-0.27813438 -0.097240828 1.1910001
-0.27371868 -0.096832588 1.1860001
-0.26955843 -0.096506007 1.182
-0.26587075 -0.096342713 1.1800001
-0.26219398 -0.096179418 1.1780001
-0.25896785 -0.096179418 1.1780001
-0.25574172 -0.096179418 1.1780001
-0.25230122 -0.096097775 1.177
-0.24886619 -0.096016131 1.176
-0.24585442 -0.096097775 1.177
-0.24242488 -0.096016131 1.176
-0.23940763 -0.096097775 1.177
-0.23558225 -0.095852837 1.174
-0.2327629 -0.096016131 1.176
-0.22954226 -0.096016131 1.176
-0.22632159 -0.096016131 1.176
-0.22291125 -0.09593448 1.1750001
-0.21988028 -0.096016131 1.176
-0.21684387 -0.096097775 1.177
-0.21380198 -0.096179418 1.1780001
-0.21093337 -0.096342713 1.1800001
-0.20787776 -0.096424356 1.1810001
-0.20498998 -0.09658765 1.1830001
-0.2019207 -0.096669301 1.184
-0.19901372 -0.096832588 1.1860001
-0.19576569 -0.096832588 1.1860001
-0.1928423 -0.096995883 1.1880001
-0.18974838 -0.097077541 1.189
-0.1868058 -0.097240828 1.1910001
-0.18354405 -0.097240828 1.1910001
-0.18043371 -0.097322479 1.192
-0.17731786 -0.097404122 1.1930001
-0.17434244 -0.097567417 1.1950001
-0.17135605 -0.097730711 1.197
-0.1682183 -0.097812355 1.1980001
-0.16535044 -0.098057292 1.2010001
-0.16246612 -0.09830223 1.2040001
-0.15956539 -0.098547168 1.207
-0.15651876 -0.098710462 1.2090001
-0.15358789 -0.0989554 1.212
-0.15039264 -0.099037044 1.2130001
-0.14755563 -0.099363633 1.217
-0.14706685 -0.10132314 1.2410001
-0.27810374 -0.095083803 1.205
-0.27229509 -0.094215818 1.194
-0.26789856 -0.09382128 1.189
-0.26375201 -0.093505643 1.1850001
-0.25984716 -0.093268916 1.182
-0.25617591 -0.093111105 1.1800001
-0.25294429 -0.093111105 1.1800001
-0.24992429 -0.093190014 1.1810001
-0.24689883 -0.093268916 1.182
-0.24366175 -0.093268916 1.182
-0.24042465 -0.093268916 1.182
-0.23658557 -0.093032196 1.179
-0.23355463 -0.093111105 1.1800001
-0.23032303 -0.093111105 1.1800001
-0.22728385 -0.093190014 1.1810001
-0.2236701 -0.093032196 1.179
-0.22081515 -0.093190014 1.1810001
-0.21758081 -0.093190014 1.1810001
-0.21452795 -0.093268916 1.182
-0.21146964 -0.093347825 1.1830001
-0.20840582 -0.093426734 1.184
-0.20533654 -0.093505643 1.1850001
-0.20209125 -0.093505643 1.1850001
-0.19901372 -0.093584545 1.1860001
-0.19593075 -0.093663454 1.187
-0.19300462 -0.09382128 1.189
-0.19006753 -0.093979098 1.1910001
-0.18696265 -0.094058 1.192
-0.18354405 -0.093979098 1.1910001
-0.18058507 -0.094136909 1.1930001
-0.17761512 -0.094294727 1.1950001
-0.17492601 -0.094610356 1.199
-0.17178552 -0.094689265 1.2
-0.16892038 -0.094925985 1.2030001
-0.16590114 -0.095083803 1.205
-0.16300587 -0.095320523 1.2080001
-0.15996198 -0.095478334 1.21
-0.15690714 -0.095636152 1.212
-0.15396807 -0.095872872 1.215
-0.15088858 -0.09603069 1.217
-0.14804061 -0.096346319 1.2210001
-0.14528924 -0.096740864 1.2260001
-0.27640003 -0.092316903 1.212
-0.27060232 -0.091479048 1.2010001
-0.26575518 -0.09094587 1.194
-0.26094636 -0.090412676 1.187
-0.25704429 -0.090184167 1.184
-0.253373 -0.090031832 1.182
-0.25013593 -0.090031832 1.182
-0.24710771 -0.090108 1.1830001
-0.24366175 -0.090031832 1.182
-0.24022125 -0.089955665 1.1810001
-0.23678625 -0.08987949 1.1800001
-0.23375255 -0.089955665 1.1810001
-0.23051819 -0.089955665 1.1810001
-0.2274763 -0.090031832 1.182
-0.22423922 -0.090031832 1.182
-0.22100213 -0.090031832 1.182
-0.21794929 -0.090108 1.1830001
-0.21470946 -0.090108 1.1830001
-0.21146964 -0.090108 1.1830001
-0.20822981 -0.090108 1.1830001
-0.20516326 -0.090184167 1.184
-0.2019207 -0.090184167 1.184
-0.19901372 -0.090336509 1.1860001
-0.19593075 -0.090412676 1.187
-0.1928423 -0.090488844 1.1880001
-0.18990797 -0.090641193 1.1900001
-0.18664896 -0.090641193 1.1900001
-0.18323585 -0.090565026 1.189
-0.18028232 -0.09071736 1.1910001
-0.1774665 -0.09094587 1.194
-0.17478012 -0.091250539 1.1980001
-0.17164236 -0.091326714 1.199
-0.16863956 -0.091479048 1.2010001
-0.16576347 -0.091707557 1.2040001
-0.16260107 -0.091783725 1.205
-0.15956539 -0.091936059 1.207
-0.15664822 -0.092164569 1.21
-0.15384135 -0.092469245 1.2140001
-0.15088858 -0.092697747 1.217
-0.14804061 -0.093002424 1.2210001
-0.14517073 -0.0933071 1.225
-0.14366817 -0.094525807 1.2410001
-0.27691111 -0.090245984 1.2290001
-0.27042925 -0.089217946 1.215
-0.26446375 -0.088336788 1.2030001
-0.25943238 -0.08774934 1.1950001
-0.25530222 -0.087455623 1.1910001
-0.25161728 -0.087308757 1.189
-0.24815212 -0.087235332 1.1880001
-0.24448632 -0.087088473 1.1860001
-0.24103488 -0.08701504 1.1850001
-0.23738824 -0.086868182 1.1830001
-0.23414841 -0.086868182 1.1830001
-0.23110378 -0.086941607 1.184
-0.22805367 -0.08701504 1.1850001
-0.22480837 -0.08701504 1.1850001
-0.22175002 -0.087088473 1.1860001
-0.21850197 -0.087088473 1.1860001
-0.21525393 -0.087088473 1.1860001
-0.2120059 -0.087088473 1.1860001
-0.20875785 -0.087088473 1.1860001
-0.20550981 -0.087088473 1.1860001
-0.20243232 -0.087161899 1.187
-0.19934934 -0.087235332 1.1880001
-0.196591 -0.087455623 1.1910001
-0.19349159 -0.087529048 1.192
-0.19038671 -0.087602481 1.1930001
-0.18696265 -0.087529048 1.192
-0.18369818 -0.087529048 1.192
-0.18088782 -0.08774934 1.1950001
-0.17806102 -0.087969638 1.1980001
-0.1750719 -0.088116497 1.2
-0.17207183 -0.088263355 1.202
-0.16934164 -0.088557079 1.2060001
-0.16631417 -0.088703938 1.2080001
-0.16327575 -0.088850796 1.21
-0.16009419 -0.088924229 1.2110001
-0.1570366 -0.089071088 1.2130001
-0.15422152 -0.089364812 1.217
-0.15126051 -0.089585103 1.22
-0.14828309 -0.089805387 1.223
-0.14528924 -0.090025693 1.2260001
-0.14239474 -0.09031941 1.23
-0.14083466 -0.091494292 1.2460001
-0.27325723 -0.08786986 1.243
-0.26399142 -0.085961178 1.2160001
-0.25830328 -0.085183568 1.205
-0.25309861 -0.084547341 1.1960001
-0.24877876 -0.084193885 1.1910001
-0.2448986 -0.083981812 1.1880001
-0.24103488 -0.083769739 1.1850001
-0.23758891 -0.083699048 1.184
-0.23414841 -0.083628356 1.1830001
-0.23110378 -0.083699048 1.184
-0.22805367 -0.083769739 1.1850001
-0.22499806 -0.08384043 1.1860001
-0.22175002 -0.08384043 1.1860001
-0.21831776 -0.083769739 1.1850001
-0.21507245 -0.083769739 1.1850001
-0.21182716 -0.083769739 1.1850001
-0.20840582 -0.083699048 1.184
-0.20516326 -0.083699048 1.184
-0.20226176 -0.08384043 1.1860001
-0.19951715 -0.084052503 1.189
-0.19642596 -0.084123194 1.1900001
-0.19332926 -0.084193885 1.1910001
-0.19006753 -0.084193885 1.1910001
-0.18664896 -0.084123194 1.1900001
-0.18385229 -0.084335268 1.1930001
-0.18119055 -0.084618032 1.197
-0.17835829 -0.084830113 1.2
-0.17536369 -0.084971495 1.202
-0.17207183 -0.084971495 1.202
-0.16906081 -0.085112877 1.2040001
-0.1661765 -0.085324951 1.207
-0.16314082 -0.08546634 1.2090001
-0.15996198 -0.085537031 1.21
-0.15690714 -0.085678414 1.212
-0.15409479 -0.085961178 1.2160001
-0.15101255 -0.086102568 1.2180001
-0.14779812 -0.086173259 1.2190001
-0.14469671 -0.086314641 1.2210001
-0.1414686 -0.086385332 1.222
-0.13913922 -0.087021552 1.2310001
-0.26516277 -0.084057994 1.2370001
-0.25690779 -0.082495071 1.2140001
-0.25128534 -0.081747591 1.2030001
-0.24654774 -0.081271917 1.1960001
-0.2424587 -0.081000105 1.192
-0.23879291 -0.080864199 1.1900001
-0.23513804 -0.080728292 1.1880001
-0.23168933 -0.080660336 1.187
-0.228631 -0.080728292 1.1880001
-0.22556721 -0.080796242 1.189
-0.22231095 -0.080796242 1.189
-0.21887045 -0.080728292 1.1880001
-0.21561694 -0.080728292 1.1880001
-0.21218465 -0.080660336 1.187
-0.20893387 -0.080660336 1.187
-0.20585638 -0.080728292 1.1880001
-0.20277341 -0.080796242 1.189
-0.19985273 -0.080932148 1.1910001
-0.19692114 -0.081068054 1.1930001
-0.19381626 -0.081136011 1.194
-0.1907059 -0.08120396 1.1950001
-0.18759003 -0.081271917 1.1960001
-0.18446872 -0.081339866 1.197
-0.18164468 -0.081543729 1.2
-0.17865555 -0.081679635 1.202
-0.17580137 -0.081883498 1.205
-0.1725013 -0.081883498 1.205
-0.16948205 -0.082019404 1.207
-0.16658953 -0.082223259 1.21
-0.16354564 -0.082359165 1.212
-0.16022639 -0.082359165 1.212
-0.1570366 -0.082427114 1.2130001
-0.15409479 -0.082630977 1.2160001
-0.15101255 -0.082766883 1.2180001
-0.14779812 -0.08283484 1.2190001
-0.14469671 -0.082970746 1.2210001
-0.14170012 -0.083174601 1.2240001
-0.13891315 -0.08351437 1.2290001
-0.13687085 -0.084329806 1.2410001
-0.26431453 -0.081452854 1.2490001
-0.25400081 -0.079300776 1.2160001
-0.24799076 -0.078452989 1.2030001
-0.24347572 -0.0780617 1.197
-0.2393949 -0.07780084 1.1930001
-0.23553391 -0.077605203 1.1900001
-0.23207973 -0.077539988 1.189
-0.22901592 -0.077605203 1.1900001
-0.22594662 -0.077670418 1.1910001
-0.22249793 -0.077605203 1.1900001
-0.21887045 -0.077474773 1.1880001
-0.21561694 -0.077474773 1.1880001
-0.21236342 -0.077474773 1.1880001
-0.2091099 -0.077474773 1.1880001
-0.20602965 -0.077539988 1.189
-0.20294395 -0.077605203 1.1900001
-0.20002054 -0.077735633 1.192
-0.19675606 -0.077735633 1.192
-0.19381626 -0.077866055 1.194
-0.1907059 -0.07793127 1.1950001
-0.18774688 -0.0780617 1.197
-0.18462284 -0.078126922 1.1980001
-0.18164468 -0.078257345 1.2
-0.17880419 -0.078452989 1.2030001
-0.17609316 -0.078713849 1.207
-0.17264445 -0.078648634 1.2060001
-0.16934164 -0.078648634 1.2060001
-0.16631417 -0.078779064 1.2080001
-0.16327575 -0.078909487 1.21
-0.16009419 -0.078974701 1.2110001
-0.15677768 -0.078974701 1.2110001
-0.15384135 -0.079170346 1.2140001
-0.15088858 -0.079365991 1.217
-0.14767687 -0.079431206 1.2180001
-0.1445782 -0.079561636 1.22
-0.1414686 -0.079692066 1.222
-0.1386871 -0.080018133 1.2270001
-0.13576794 -0.080278993 1.2310001
-0.13573077 -0.082300641 1.2620001
-0.25128907 -0.076158002 1.2190001
-0.24571319 -0.075470768 1.2080001
-0.24100022 -0.075033441 1.2010001
-0.23711732 -0.074846014 1.1980001
-0.23344603 -0.074721061 1.1960001
-0.23017061 -0.074721061 1.1960001
-0.22689518 -0.074721061 1.1960001
-0.22343279 -0.07465858 1.1950001
-0.21997586 -0.074596107 1.194
-0.21670592 -0.074596107 1.194
-0.21343596 -0.074596107 1.194
-0.20998999 -0.074533634 1.1930001
-0.20672278 -0.074533634 1.1930001
-0.20345557 -0.074533634 1.1930001
-0.20035616 -0.074596107 1.194
-0.19741632 -0.074721061 1.1960001
-0.19462788 -0.074908487 1.199
-0.19150382 -0.074970968 1.2
-0.18837428 -0.075033441 1.2010001
-0.18523927 -0.075095914 1.202
-0.18209878 -0.075158395 1.2030001
-0.17895281 -0.075220868 1.2040001
-0.17594726 -0.075345814 1.2060001
-0.17278761 -0.075408295 1.207
-0.16962247 -0.075470768 1.2080001
-0.16658953 -0.075595722 1.21
-0.16341069 -0.075658195 1.2110001
-0.16009419 -0.075658195 1.2110001
-0.15677768 -0.075658195 1.2110001
-0.15384135 -0.075845622 1.2140001
-0.15088858 -0.076033056 1.217
-0.14791936 -0.076220483 1.22
-0.14469671 -0.076282956 1.2210001
-0.14170012 -0.076470383 1.2240001
-0.1386871 -0.076657809 1.2270001
-0.13565765 -0.076845236 1.23
-0.13304198 -0.07728257 1.2370001
-0.25582424 -0.074133806 1.2410001
-0.24713702 -0.072580636 1.215
-0.24220422 -0.07210274 1.207
-0.23810697 -0.071863793 1.2030001
-0.23442198 -0.071744315 1.2010001
-0.23094042 -0.071684584 1.2
-0.22765404 -0.071684584 1.2
-0.22418068 -0.071624845 1.199
-0.2207128 -0.071565107 1.1980001
-0.2170689 -0.071445629 1.1960001
-0.21379346 -0.071445629 1.1960001
-0.21034203 -0.07138589 1.1950001
-0.20672278 -0.07126642 1.1930001
-0.20328502 -0.071206681 1.192
-0.20035616 -0.071326159 1.194
-0.1975814 -0.071505368 1.197
-0.19479021 -0.071684584 1.2
-0.1916634 -0.071744315 1.2010001
-0.18853113 -0.071804054 1.202
-0.18523927 -0.071804054 1.202
-0.18209878 -0.071863793 1.2030001
-0.17910144 -0.071983263 1.205
-0.17580137 -0.071983263 1.205
-0.17264445 -0.072043002 1.2060001
-0.16962247 -0.072162479 1.2080001
-0.16645186 -0.07222221 1.2090001
-0.16314082 -0.07222221 1.2090001
-0.1598298 -0.07222221 1.2090001
-0.15664822 -0.072281949 1.21
-0.15358789 -0.072401427 1.212
-0.15051661 -0.072520897 1.2140001
-0.14767687 -0.072759852 1.2180001
-0.14469671 -0.072939061 1.2210001
-0.14170012 -0.073118269 1.2240001
-0.13846104 -0.073178008 1.225
-0.13532677 -0.073297486 1.2270001
-0.13239665 -0.073536433 1.2310001
-0.13185534 -0.075149335 1.258
-0.25932866 -0.071704112 1.258
-0.24917108 -0.069823161 1.225
-0.24380957 -0.069253169 1.215
-0.23988831 -0.069082178 1.212
-0.2357883 -0.068854183 1.2080001
-0.23228756 -0.068797186 1.207
-0.2286026 -0.068683192 1.205
-0.22511554 -0.068626195 1.2040001
-0.22144973 -0.068512194 1.202
-0.21797636 -0.068455197 1.2010001
-0.21468724 -0.068455197 1.2010001
-0.2110461 -0.068341203 1.199
-0.20758918 -0.068284206 1.1980001
-0.20413773 -0.068227202 1.197
-0.20102736 -0.068284206 1.1980001
-0.19807659 -0.0683982 1.2
-0.19527717 -0.068569191 1.2030001
-0.19230177 -0.068683192 1.205
-0.18884483 -0.068626195 1.2040001
-0.1858557 -0.068740189 1.2060001
-0.18240152 -0.068683192 1.205
-0.17925008 -0.068740189 1.2060001
-0.17594726 -0.068740189 1.2060001
-0.17278761 -0.068797186 1.207
-0.16976288 -0.06891118 1.2090001
-0.16658953 -0.068968184 1.21
-0.16327575 -0.068968184 1.21
-0.16009419 -0.069025181 1.2110001
-0.15677768 -0.069025181 1.2110001
-0.15346117 -0.069025181 1.2110001
-0.15026866 -0.069082178 1.212
-0.14755563 -0.06936717 1.217
-0.14469671 -0.069595166 1.2210001
-0.14181589 -0.069823161 1.225
-0.1386871 -0.069937155 1.2270001
-0.13543706 -0.069994152 1.228
-0.13228911 -0.070108153 1.23
-0.12986389 -0.07062114 1.2390001
-0.23676425 -0.065817192 1.2130001
-0.23286493 -0.065654412 1.21
-0.228982 -0.065491632 1.207
-0.22548948 -0.065437376 1.2060001
-0.22163397 -0.065274596 1.2030001
-0.21833937 -0.065274596 1.2030001
-0.21468724 -0.065166079 1.2010001
-0.21122213 -0.065111816 1.2
-0.20776246 -0.065057553 1.199
-0.20430827 -0.065003298 1.1980001
-0.20119517 -0.065057553 1.199
-0.19807659 -0.065111816 1.2
-0.19527717 -0.065274596 1.2030001
-0.19230177 -0.065383114 1.205
-0.18900168 -0.065383114 1.205
-0.18570161 -0.065383114 1.205
-0.18255289 -0.065437376 1.2060001
-0.17939872 -0.065491632 1.207
-0.17623904 -0.065545894 1.2080001
-0.17293076 -0.065545894 1.2080001
-0.16962247 -0.065545894 1.2080001
-0.16631417 -0.065545894 1.2080001
-0.16314082 -0.065600149 1.2090001
-0.16009419 -0.065708674 1.2110001
-0.15690714 -0.06576293 1.212
-0.15346117 -0.065708674 1.2110001
-0.15014467 -0.065708674 1.2110001
-0.1471919 -0.065871447 1.2140001
-0.14434119 -0.06608849 1.2180001
-0.14158435 -0.066359788 1.223
-0.13846104 -0.066468313 1.225
-0.13532677 -0.066576831 1.2270001
-0.132074 -0.066631086 1.228
-0.1291302 -0.066848129 1.2320001
-0.23030999 -0.062546723 1.2140001
-0.22661132 -0.062443685 1.212
-0.22273938 -0.062289122 1.2090001
-0.21942835 -0.062289122 1.2090001
-0.21558103 -0.062134556 1.2060001
-0.21210222 -0.062083036 1.205
-0.20862886 -0.062031515 1.2040001
-0.20533152 -0.062031515 1.2040001
-0.20186637 -0.061979994 1.2030001
-0.19857177 -0.061979994 1.2030001
-0.19576414 -0.062134556 1.2060001
-0.19278051 -0.062237602 1.2080001
-0.18962906 -0.062289122 1.2090001
-0.18616393 -0.062237602 1.2080001
-0.18285564 -0.062237602 1.2080001
-0.17984462 -0.062340643 1.21
-0.17682263 -0.062443685 1.212
-0.17336023 -0.062392164 1.2110001
-0.16990329 -0.062340643 1.21
-0.16658953 -0.062340643 1.21
-0.16354564 -0.062443685 1.212
-0.16035859 -0.062495206 1.2130001
-0.1570366 -0.062495206 1.2130001
-0.15384135 -0.062546723 1.2140001
-0.15051661 -0.062546723 1.2140001
-0.14743438 -0.062649764 1.2160001
-0.14434119 -0.062752813 1.2180001
-0.1414686 -0.062958896 1.222
-0.13857408 -0.063164979 1.2260001
-0.13554735 -0.063319542 1.2290001
-0.13228911 -0.063371062 1.23
-0.12902537 -0.063422583 1.2310001
-0.12575617 -0.063474104 1.2320001
-0.22773317 -0.059417136 1.2180001
-0.22366054 -0.059222002 1.2140001
-0.21997282 -0.059124436 1.212
-0.21611732 -0.058978092 1.2090001
-0.21263026 -0.058929309 1.2080001
-0.2089754 -0.058831744 1.2060001
-0.20567259 -0.058831744 1.2060001
-0.20220199 -0.058782961 1.205
-0.19890191 -0.058782961 1.205
-0.19592647 -0.058880527 1.207
-0.1929401 -0.058978092 1.2090001
-0.18962906 -0.058978092 1.2090001
-0.18616393 -0.058929309 1.2080001
-0.18270425 -0.058880527 1.207
-0.17969598 -0.058978092 1.2090001
-0.17682263 -0.059124436 1.212
-0.17336023 -0.059075654 1.2110001
-0.16990329 -0.059026871 1.21
-0.16645186 -0.058978092 1.2090001
-0.16327575 -0.059026871 1.21
-0.16009419 -0.059075654 1.2110001
-0.15690714 -0.059124436 1.212
-0.15384135 -0.059222002 1.2140001
-0.15064059 -0.059270784 1.215
-0.14731313 -0.059270784 1.215
-0.14422269 -0.059368353 1.217
-0.14112128 -0.059465919 1.2190001
-0.13823499 -0.059661046 1.223
-0.13521649 -0.059807394 1.2260001
-0.13196646 -0.059856176 1.2270001
-0.12881576 -0.059953742 1.2290001
-0.12565409 -0.060051303 1.2310001
-0.1230775 -0.060441568 1.2390001
-0.22495019 -0.056219589 1.2210001
-0.22124331 -0.0561275 1.2190001
-0.21754736 -0.056035414 1.217
-0.2140384 -0.055989366 1.2160001
-0.21036166 -0.055897277 1.2140001
-0.20703693 -0.055897277 1.2140001
-0.20337659 -0.055805191 1.212
-0.20005734 -0.055805191 1.212
-0.19657576 -0.055759147 1.2110001
-0.19341885 -0.055805191 1.212
-0.1900996 -0.055805191 1.212
-0.18678036 -0.055805191 1.212
-0.18346111 -0.055805191 1.212
-0.18029051 -0.055851232 1.2130001
-0.17726029 -0.055943321 1.215
-0.17378968 -0.055897277 1.2140001
-0.17032455 -0.055851232 1.2130001
-0.16686489 -0.055805191 1.212
-0.16368057 -0.055851232 1.2130001
-0.16035859 -0.055851232 1.2130001
-0.1570366 -0.055851232 1.2130001
-0.15396807 -0.055943321 1.215
-0.15088858 -0.056035414 1.217
-0.14755563 -0.056035414 1.217
-0.14434119 -0.056081455 1.2180001
-0.14123705 -0.056173544 1.22
-0.13823499 -0.056311674 1.223
-0.13521649 -0.056449804 1.2260001
-0.132074 -0.056541894 1.228
-0.12892057 -0.056633979 1.23
-0.12585825 -0.056772109 1.233
-0.12287883 -0.056956291 1.2370001
-0.12084348 -0.057600901 1.251
-0.11326241 -0.057232551 1.243
-0.11127237 -0.057969254 1.2590001
-0.21879867 -0.05300561 1.2240001
-0.21527053 -0.052962303 1.223
-0.21140133 -0.052832387 1.22
-0.20788963 -0.052789085 1.2190001
-0.2043834 -0.052745778 1.2180001
-0.2007176 -0.052659161 1.2160001
-0.19722508 -0.052615859 1.215
-0.19389762 -0.052615859 1.215
