# .PCD v0.7 - Point Cloud Data file format
VERSION 0.7
FIELDS x y z
SIZE 4 4 4
TYPE F F F
COUNT 1 1 1
WIDTH 179
HEIGHT 1
VIEWPOINT 0 0 0 1 0 0 0
POINTS 179
DATA ascii
-0.23274019 -0.020742834 1.0087991
-0.23795086 -0.020491511 1.0071856
-0.23751533 -0.016138598 1.0048339
-0.24170446 -0.0090702921 0.99963361
-0.23834741 -0.0023456067 0.99675834
-0.23798499 0.00062809885 0.99517018
-0.23759991 0.0040212274 0.99335003
-0.23728737 0.0061243325 0.99224269
-0.23699811 0.0078037679 0.99136961
-0.23668528 0.0099089891 0.9902612
-0.23344013 0.015266344 0.98813164
-0.22756861 0.022978127 0.98540491
-0.22729939 0.023834109 0.98499429
-0.22697517 0.026334614 0.98366433
-0.22372141 0.033650294 0.98042399
-0.22342271 0.035324618 0.97955644
-0.22310451 0.037801683 0.97823817
-0.22280519 0.039480224 0.97736847
-0.21991262 0.044234946 0.97548193
-0.21646377 0.050349221 0.97297961
-0.21615657 0.052416459 0.97189116
-0.21301278 0.058765203 0.96916938
-0.21270603 0.060442582 0.96830243
-0.21240151 0.062878609 0.96700358
-0.20957968 0.065615684 0.9662441
-0.20647371 0.07114087 0.96397984
-0.20618507 0.073925413 0.9624784
-0.20309469 0.079044431 0.96044064
-0.19998857 0.083427206 0.95882583
-0.19695249 0.089228094 0.95638514
-0.19139299 0.094244264 0.95510268
-0.18832944 0.098949544 0.95329255
-0.17981347 0.10930505 0.94980931
-0.17951348 0.11132379 0.94874638
-0.17932194 0.11433716 0.94708747
-0.17629695 0.11898803 0.94529736
-0.17332095 0.12395231 0.94331527
-0.16740748 0.13382654 0.93937111
-0.16441783 0.13842756 0.93759942
-0.16154543 0.14362822 0.93545371
-0.15857504 0.14820206 0.93369198
-0.15573475 0.15335737 0.93156302
-0.15527101 0.15790106 0.929111
-0.15239263 0.16272095 0.92718345
-0.14704366 0.1675335 0.92595732
-0.14434229 0.17287536 0.92368311
-0.14164656 0.17512864 0.923163
-0.13887033 0.17710963 0.92282045
-0.13355935 0.18188854 0.92160273
-0.13084057 0.18689245 0.9195255
-0.12823379 0.19212757 0.91728526
-0.12803747 0.19433086 0.91608816
-0.12793514 0.19678415 0.91472244
-0.12764676 0.19872487 0.91370064
-0.12745231 0.20091552 0.91251022
-0.12488909 0.20606248 0.91030777
-0.12450477 0.20774928 0.90945739
-0.12441325 0.21016398 0.9081105
-0.12412675 0.21209198 0.90709537
-0.12403709 0.214494 0.90575522
-0.12375122 0.2164178 0.9047423
-0.12347756 0.22095746 0.90223891
-0.1208655 0.22575578 0.90024847
-0.11806113 0.23008367 0.89857972
-0.11760017 0.23411913 0.89641577
-0.11480605 0.23842922 0.89475423
-0.11213122 0.24293861 0.89294577
-0.1070265 0.24750814 0.89178884
-0.1064975 0.25607732 0.8870669
-0.1110253 0.26005793 0.88352621
-0.11299687 0.26391271 0.88077843
-0.11747137 0.26784176 0.87728208
-0.11952512 0.27183819 0.87443066
-0.12146216 0.27563503 0.87172556
-0.12370029 0.27993298 0.86865067
-0.12599017 0.28201577 0.86682039
-0.12779649 0.28558782 0.86428005
-0.1304505 0.28830528 0.86198622
-0.13269585 0.29034579 0.86019254
-0.12910843 0.29005593 0.86136979
-0.12015772 0.29096481 0.86337936
-0.11308625 0.28897807 0.86650449
-0.11085784 0.28924829 0.86697984
-0.10875141 0.28968218 0.86732769
-0.10627638 0.28962529 0.86805856
-0.099578157 0.29257798 0.86827052
-0.094718449 0.29477641 0.86839235
-0.085683346 0.29782981 0.86920661
-0.078422189 0.30015334 0.8699351
-0.071458638 0.30278534 0.87040424
-0.068725035 0.3026123 0.87127411
-0.065975934 0.30244124 0.87214726
-0.062520519 0.30168319 0.8735534
-0.059554767 0.3013702 0.87456834
-0.056746203 0.30120629 0.87545419
-0.054379985 0.29932371 0.8771922
-0.04962033 0.29553691 0.88068819
-0.045112997 0.29406554 0.8827967
-0.042782903 0.28586549 0.88811576
-0.045285616 0.28147227 0.88990682
-0.036511898 0.2701675 0.89880937
-0.034174882 0.27045089 0.89930785
-0.031837888 0.27073425 0.89980638
-0.029093139 0.27066448 0.9006207
-0.026338041 0.27059594 0.90143722
-0.02129402 0.26871663 0.90392911
-0.018511117 0.26864731 0.90475392
-0.009008415 0.27189207 0.90559137
-0.0064235851 0.27200422 0.90625715
-0.0060292855 0.26955071 0.90776318
-0.006242156 0.25450003 0.91625887
-0.0010234565 0.24589375 0.92262411
0.0039057508 0.24194357 0.92626077
0.0036129728 0.23997335 0.92729813
0.0037851483 0.23759061 0.92870122
0.0039560497 0.23519948 0.93010873
0.0040625706 0.23060447 0.93275088
0.0014965907 0.22590531 0.93469799
-0.0015324131 0.2216313 0.93627274
-0.003895767 0.2166788 0.93842101
-0.0038250461 0.21199656 0.94110268
-0.0064372271 0.20722552 0.94307756
-0.006381169 0.20249593 0.94578201
-0.0092313066 0.19792841 0.94757408
-0.011966176 0.19083455 0.95083475
-0.014950871 0.18876618 0.95116818
-0.017315082 0.18593711 0.95210916
-0.019690901 0.18309838 0.95305234
-0.022476502 0.18076998 0.95358974
-0.024975695 0.17562078 0.95581156
-0.030297153 0.16810143 0.95858413
-0.041260477 0.16336323 0.95818341
-0.046205729 0.16016322 0.95860678
-0.051508576 0.15751714 0.95861435
-0.054614689 0.15313436 0.96022916
-0.059599262 0.14990887 0.96065587
-0.065220416 0.14784223 0.96024424
-0.070375085 0.14490098 0.96046144
-0.07568343 0.14225216 0.96046901
-0.083628841 0.13960087 0.95973366
-0.086168393 0.13665116 0.96069372
-0.091482222 0.13399962 0.96070135
-0.094291016 0.13165183 0.96124321
-0.099604852 0.12900029 0.96125078
-0.10229867 0.12633878 0.96200347
-0.10772745 0.12400095 0.96180022
-0.11304127 0.12134941 0.96180785
-0.12366892 0.11604632 0.96182293
-0.12629744 0.11304435 0.96278763
-0.13192663 0.10833909 0.96387362
-0.1347412 0.10598644 0.96441668
-0.13999008 0.10299235 0.96463728
-0.14266145 0.099958286 0.96560812
-0.15334395 0.094627835 0.96562332
-0.15893424 0.089558192 0.96692747
-0.16201298 0.084784806 0.96877205
-0.16499844 0.079284556 0.9710561
-0.170674 0.074540511 0.9721511
-0.17373696 0.06936682 0.97422767
-0.17419112 0.063738137 0.97729921
-0.17751703 0.055679508 0.98094153
-0.17779067 0.053212017 0.98226702
-0.18131386 0.047024548 0.98478997
-0.1814937 0.043378338 0.98681194
-0.18482053 0.034403265 0.99097502
-0.18836807 0.028171405 0.99351639
-0.18863055 0.025255442 0.9950999
-0.18894401 0.023145989 0.99621058
-0.18911019 0.018578932 0.99875987
-0.19529447 0.012415037 1.0005184
-0.19822028 0.010401443 1.0008373
-0.20110235 0.0071284771 1.0018845
-0.20399597 0.003845796 1.0029339
-0.2068944 0.00012719631 1.0042297
-0.21274966 -0.0047670603 1.0053594
-0.21568099 -0.0080812573 1.0064161
-0.21862392 -0.011405125 1.0074749
-0.22153255 -0.01210843 1.0070539
-0.22971368 -0.016071647 1.0069978
