# .PCD v0.7 - Point Cloud Data file format
VERSION 0.7
FIELDS x y z
SIZE 4 4 4
TYPE F F F
COUNT 1 1 1
WIDTH 1388
HEIGHT 1
VIEWPOINT 0 0 0 1 0 0 0
POINTS 1388
DATA ascii
-0.056789391 0.19897804 0.92800003
-0.05436283 0.19940688 0.93000007
-0.051925305 0.1998357 0.93200004
-0.049476817 0.20026453 0.93400002
-0.046916898 0.20026453 0.93400002
-0.044356983 0.20026453 0.93400002
-0.04184182 0.20047896 0.93500006
-0.039321173 0.20069337 0.93600005
-0.036834314 0.20112219 0.93800002
-0.034226902 0.20090778 0.93700004
-0.031692553 0.20112219 0.93800002
-0.029121675 0.20112219 0.93800002
-0.026579101 0.20133662 0.93900007
-0.02405661 0.20176545 0.94100004
-0.021523155 0.20219427 0.94300002
-0.018958656 0.2024087 0.94400007
-0.01642336 0.20305194 0.94700003
-0.013857016 0.20348077 0.94900006
-0.011291571 0.20412402 0.95200002
-0.0087370407 0.20541051 0.95800006
-0.006130483 0.20605376 0.96100003
-0.0035111187 0.20691143 0.96500003
-0.00087162328 0.20819794 0.97100008
0.0018099775 0.21055651 0.98200005
0.0045610443 0.21334392 0.99500006
0.0073906961 0.21634574 1.0090001
-0.1544527 0.21346512 0.98300004
-0.14666384 0.20629896 0.95000005
-0.14315021 0.20499602 0.94400007
-0.14026509 0.20456171 0.94200003
-0.13666013 0.20304161 0.93500006
-0.13295011 0.20130435 0.92700005
-0.12942463 0.19978425 0.92000002
-0.12635133 0.19891563 0.91600007
-0.12384075 0.19891563 0.91600007
-0.12119771 0.19869848 0.91500002
-0.11881959 0.19891563 0.91600007
-0.11605506 0.19848132 0.91400003
-0.11354996 0.19848132 0.91400003
-0.11080188 0.198047 0.91200006
-0.108421 0.19826415 0.91300005
-0.10591864 0.19826415 0.91300005
-0.10364283 0.19869848 0.91500002
-0.10113499 0.19869848 0.91500002
-0.098627143 0.19869848 0.91500002
-0.096224353 0.19891563 0.91600007
-0.093816079 0.19913279 0.91700006
-0.09130276 0.19913279 0.91700006
-0.088789433 0.19913279 0.91700006
-0.086276107 0.19913279 0.91700006
-0.083945476 0.19956711 0.91900003
-0.08133807 0.19934994 0.91800004
-0.078822009 0.19934994 0.91800004
-0.076305941 0.19934994 0.91800004
-0.073950641 0.19978425 0.92000002
-0.071429096 0.19978425 0.92000002
-0.069057353 0.20021856 0.92200005
-0.066458166 0.20000142 0.92100006
-0.064003296 0.20021856 0.92200005
-0.061409593 0.20000142 0.92100006
-0.059077118 0.2006529 0.92400002
-0.056667004 0.20108721 0.92600006
-0.054245923 0.20152152 0.92800003
-0.051813874 0.20195583 0.93000007
-0.049317896 0.20217296 0.93100005
-0.046766203 0.20217296 0.93100005
-0.044167019 0.20195583 0.93000007
-0.041662816 0.20217296 0.93100005
-0.039195143 0.2026073 0.93300003
-0.036677234 0.20282444 0.93400002
-0.034117319 0.20282444 0.93400002
-0.031591192 0.20304161 0.93500006
-0.029059581 0.20325875 0.93600005
-0.026522487 0.20347592 0.93700004
-0.023979915 0.20369308 0.93800002
-0.021454684 0.20412739 0.94000006
-0.018898407 0.20434456 0.94100004
-0.016336646 0.20456171 0.94200003
-0.013798609 0.20521317 0.94500005
-0.011244128 0.20586465 0.94800007
-0.0087005598 0.20716758 0.95400006
-0.0061113448 0.2080362 0.95800006
-0.0034965647 0.20868768 0.96100003
-0.00086713501 0.20977347 0.96600002
0.0017933891 0.21129358 0.97300005
0.0044922847 0.21281368 0.98000002
0.0072515258 0.21498522 0.99000007
0.01018637 0.21976267 1.0120001
-0.15869504 0.22209658 1.01
-0.1488252 0.2119813 0.96400005
-0.14360514 0.20824303 0.94700003
-0.14056289 0.20758335 0.94400007
-0.13680629 0.20582415 0.93600005
-0.13295011 0.20384508 0.92700005
-0.12942463 0.20230579 0.92000002
-0.12635133 0.20142621 0.91600007
-0.12384075 0.20142621 0.91600007
-0.12133017 0.20142621 0.91600007
-0.11881959 0.20142621 0.91600007
-0.11605506 0.20098642 0.91400003
-0.11342572 0.2007665 0.91300005
-0.11080188 0.20054662 0.91200006
-0.10830226 0.20054662 0.91200006
-0.10580264 0.20054662 0.91200006
-0.10352955 0.20098642 0.91400003
-0.10102446 0.20098642 0.91400003
-0.098627143 0.20120633 0.91500002
-0.096119307 0.20120633 0.91500002
-0.093816079 0.20164612 0.91700006
-0.09130276 0.20164612 0.91700006
-0.088789433 0.20164612 0.91700006
-0.086276107 0.20164612 0.91700006
-0.083854131 0.201866 0.91800004
-0.08133807 0.201866 0.91800004
-0.078822009 0.201866 0.91800004
-0.076472186 0.20230579 0.92000002
-0.074031025 0.20252571 0.92100006
-0.071506739 0.20252571 0.92100006
-0.069057353 0.20274559 0.92200005
-0.066530325 0.20274559 0.92200005
-0.064072721 0.2029655 0.92300004
-0.061542951 0.2029655 0.92300004
-0.059141055 0.20340529 0.92500007
-0.056728195 0.20384508 0.92700005
-0.054245923 0.20406498 0.92800003
-0.051758166 0.20428488 0.92900002
-0.049211953 0.20428488 0.92900002
-0.046665743 0.20428488 0.92900002
-0.044167019 0.20450477 0.93000007
-0.041662816 0.20472467 0.93100005
-0.039153133 0.20494457 0.93200004
-0.036677234 0.20538436 0.93400002
-0.034117319 0.20538436 0.93400002
-0.031591192 0.20560427 0.93500006
-0.029059581 0.20582415 0.93600005
-0.026550796 0.20626394 0.93800002
-0.024031043 0.20670374 0.94000006
-0.021477509 0.20692365 0.94100004
-0.018898407 0.20692365 0.94100004
-0.016353989 0.20736344 0.94300002
-0.013784008 0.20758335 0.94400007
-0.011232266 0.20824303 0.94700003
-0.0087005598 0.20978232 0.95400006
-0.0061113448 0.2106619 0.95800006
-0.0034929262 0.2111017 0.96000004
-0.00086354441 0.2115415 0.96200007
0.0017823302 0.21264099 0.96700007
0.0044601969 0.21396038 0.97300005
0.0071856026 0.21571955 0.98100007
0.010055518 0.2196777 0.99900007
-0.15083218 0.21751773 0.97700006
-0.14360514 0.21083857 0.94700003
-0.14011618 0.20950276 0.94100004
-0.13666013 0.20816693 0.93500006
-0.13295011 0.20638581 0.92700005
-0.12928395 0.20460472 0.91900003
-0.12621339 0.20371416 0.91500002
-0.12370555 0.20371416 0.91500002
-0.12119771 0.20371416 0.91500002
-0.11856015 0.20349151 0.91400003
-0.11592808 0.20326887 0.91300005
-0.11330149 0.20304623 0.91200006
-0.11080188 0.20304623 0.91200006
-0.10830226 0.20304623 0.91200006
-0.10580264 0.20304623 0.91200006
-0.10330302 0.20304623 0.91200006
-0.10091392 0.20326887 0.91300005
-0.098519355 0.20349151 0.91400003
-0.096014254 0.20349151 0.91400003
-0.093611464 0.20371416 0.91500002
-0.091004051 0.20349151 0.91400003
-0.08849895 0.20349151 0.91400003
-0.08589977 0.20326887 0.91300005
-0.083397411 0.20326887 0.91300005
-0.081072256 0.20371416 0.91500002
-0.078650281 0.20393679 0.91600007
-0.076305941 0.20438206 0.91800004
-0.07378988 0.20438206 0.91800004
-0.071273819 0.20438206 0.91800004
-0.068832651 0.20460472 0.91900003
-0.066313848 0.20460472 0.91900003
-0.063864462 0.20482734 0.92000002
-0.061409593 0.20504999 0.92100006
-0.059077118 0.20571791 0.92400002
-0.056605805 0.20594053 0.92500007
-0.054129016 0.20616318 0.92600006
-0.051646736 0.20638581 0.92700005
-0.049106006 0.20638581 0.92700005
-0.046515044 0.20616318 0.92600006
-0.043977052 0.20616318 0.92600006
-0.041483816 0.20638581 0.92700005
-0.039027102 0.20683108 0.92900002
-0.036520161 0.20705374 0.93000007
-0.034044266 0.20749901 0.93200004
-0.031523615 0.20772165 0.93300003
-0.028997486 0.20794427 0.93400002
-0.026465878 0.20816693 0.93500006
-0.023928786 0.20838955 0.93600005
-0.021386212 0.2086122 0.93700004
-0.018838158 0.20883483 0.93800002
-0.016284619 0.20905748 0.93900007
-0.013740203 0.20950276 0.94100004
-0.011196683 0.21017067 0.94400007
-0.0086731995 0.21172914 0.95100003
-0.0060922066 0.21261969 0.95500004
-0.0034820109 0.21306497 0.95700002
-0.00086174905 0.21373287 0.96000004
0.0017731144 0.21417816 0.96200007
0.0044281092 0.21506871 0.96600002
0.0071123554 0.21618192 0.97100008
0.0099145994 0.21929884 0.98500007
0.012972875 0.22553273 1.013
-0.1534567 0.22402695 0.99400002
-0.14436336 0.21456103 0.95200002
-0.140414 0.21253261 0.94300002
-0.13724476 0.2116311 0.93900007
-0.13338037 0.20960268 0.93000007
-0.12956531 0.20757428 0.92100006
-0.12648927 0.20667276 0.91700006
-0.12370555 0.206222 0.91500002
-0.12133017 0.20644736 0.91600007
-0.11868987 0.206222 0.91500002
-0.11618203 0.206222 0.91500002
-0.11354996 0.20599662 0.91400003
-0.11104485 0.20599662 0.91400003
-0.108421 0.20577122 0.91300005
-0.10580264 0.20554586 0.91200006
-0.10318974 0.20532046 0.91100007
-0.10069287 0.20532046 0.91100007
-0.09830378 0.20554586 0.91200006
-0.095909201 0.20577122 0.91300005
-0.093509153 0.20599662 0.91400003
-0.091004051 0.20599662 0.91400003
-0.08840213 0.20577122 0.91300005
-0.08589977 0.20577122 0.91300005
-0.083397411 0.20577122 0.91300005
-0.081072256 0.206222 0.91500002
-0.078650281 0.20644736 0.91600007
-0.076305941 0.20689812 0.91800004
-0.073709495 0.20667276 0.91700006
-0.071273819 0.20689812 0.91800004
-0.068832651 0.20712352 0.91900003
-0.066458166 0.20757428 0.92100006
-0.063864462 0.20734888 0.92000002
-0.061409593 0.20757428 0.92100006
-0.059013184 0.20802502 0.92300004
-0.056605805 0.20847578 0.92500007
-0.054129016 0.20870118 0.92600006
-0.051702451 0.20915192 0.92800003
-0.049211953 0.20937729 0.92900002
-0.046565272 0.20892654 0.92700005
-0.044024546 0.20892654 0.92700005
-0.041573316 0.20937729 0.92900002
-0.039111122 0.20982805 0.93100005
-0.036598701 0.21005344 0.93200004
-0.034080792 0.21027882 0.93300003
-0.031557404 0.2105042 0.93400002
-0.029028535 0.21072958 0.93500006
-0.026494183 0.21095495 0.93600005
-0.023928786 0.21095495 0.93600005
-0.021409037 0.21140571 0.93800002
-0.018858239 0.2116311 0.93900007
-0.016319305 0.21208185 0.94100004
-0.013769406 0.21253261 0.94300002
-0.011208544 0.21298337 0.94500005
-0.0086823199 0.21456103 0.95200002
-0.0060858279 0.21501178 0.95400006
-0.0034820109 0.21568793 0.95700002
-0.00086085143 0.21613868 0.95900005
0.0017712712 0.21658944 0.96100003
0.0044235252 0.21749094 0.96500003
0.0071050301 0.21861786 0.97000003
0.0098743364 0.22109702 0.98100007
0.012844812 0.22605535 1.003
-0.15638997 0.2310856 1.013
-0.14572814 0.21922335 0.96100003
-0.14056289 0.21534532 0.94400007
-0.13753709 0.21466096 0.94100004
-0.13381062 0.212836 0.93300003
-0.12970598 0.21032667 0.92200005
-0.12621339 0.20872985 0.91500002
-0.12343515 0.20827359 0.91300005
-0.1209328 0.20827359 0.91300005
-0.11843044 0.20827359 0.91300005
-0.11592808 0.20827359 0.91300005
-0.11354996 0.20850171 0.91400003
-0.11092336 0.20827359 0.91300005
-0.10830226 0.20804548 0.91200006
-0.10557061 0.20758924 0.91000003
-0.1029632 0.2073611 0.90900004
-0.10069287 0.20781735 0.91100007
-0.09830378 0.20804548 0.91200006
-0.095804162 0.20804548 0.91200006
-0.093304545 0.20804548 0.91200006
-0.090705357 0.20781735 0.91100007
-0.088208474 0.20781735 0.91100007
-0.08561752 0.20758924 0.91000003
-0.083214723 0.20781735 0.91100007
-0.080806449 0.20804548 0.91200006
-0.078392692 0.20827359 0.91300005
-0.075890332 0.20827359 0.91300005
-0.07346835 0.20850171 0.91400003
-0.071040899 0.20872985 0.91500002
-0.068682849 0.20918608 0.91700006
-0.066241689 0.20941418 0.91800004
-0.063656203 0.20918608 0.91700006
-0.061209563 0.20941418 0.91800004
-0.058821373 0.20987043 0.92000002
-0.056422219 0.21032667 0.92200005
-0.054012101 0.21078293 0.92400002
-0.051591024 0.21123916 0.92600006
-0.049106006 0.21146727 0.92700005
-0.046515044 0.21123916 0.92600006
-0.043977052 0.21123916 0.92600006
-0.041528564 0.2116954 0.92800003
-0.039069112 0.21215163 0.93000007
-0.036480889 0.21192351 0.92900002
-0.034007736 0.21237974 0.93100005
-0.03148983 0.21260788 0.93200004
-0.028966442 0.212836 0.93300003
-0.026409267 0.212836 0.93300003
-0.023877654 0.21306412 0.93400002
-0.021340564 0.21329224 0.93500006
-0.018818073 0.21374848 0.93700004
-0.016267277 0.21397659 0.93800002
-0.013725601 0.21443282 0.94000006
-0.011184823 0.21511719 0.94300002
-0.00864584 0.2162578 0.94800007
-0.006053932 0.2164859 0.94900006
-0.0034638185 0.21717027 0.95200002
-0.00085726078 0.21785463 0.95500004
0.0017638986 0.21831088 0.95700002
0.0044006053 0.21899523 0.96000004
0.0070537571 0.21967959 0.96300006
0.0097837467 0.22173268 0.97200006
0.012716748 0.22652321 0.99300003
-0.14785112 0.22508933 0.97500002
-0.1416052 0.21954867 0.95100003
-0.13841406 0.21862522 0.94700003
-0.13438432 0.21631663 0.93700004
-0.12984666 0.21308456 0.92300004
-0.12635133 0.21146853 0.91600007
-0.12343515 0.21077594 0.91300005
-0.1209328 0.21077594 0.91300005
-0.11843044 0.21077594 0.91300005
-0.11605506 0.21100682 0.91400003
-0.11354996 0.21100682 0.91400003
-0.11104485 0.21100682 0.91400003
-0.10830226 0.21054509 0.91200006
-0.10557061 0.21008338 0.91000003
-0.1029632 0.2098525 0.90900004
-0.1004718 0.2098525 0.90900004
-0.098088197 0.21008338 0.91000003
-0.095699117 0.21031423 0.91100007
-0.093202233 0.21031423 0.91100007
-0.090705357 0.21031423 0.91100007
-0.088208474 0.21031423 0.91100007
-0.085711598 0.21031423 0.91100007
-0.083306067 0.21054509 0.91200006
-0.080895051 0.21077594 0.91300005
-0.078478552 0.21100682 0.91400003
-0.075890332 0.21077594 0.91300005
-0.07346835 0.21100682 0.91400003
-0.071040899 0.21123768 0.91500002
-0.068682849 0.2116994 0.91700006
-0.066241689 0.21193026 0.91800004
-0.063656203 0.2116994 0.91700006
-0.061209563 0.21193026 0.91800004
-0.058757439 0.21216112 0.91900003
-0.056422219 0.21285369 0.92200005
-0.053953651 0.21308456 0.92300004
-0.051591024 0.21377715 0.92600006
-0.049106006 0.214008 0.92700005
-0.046565272 0.214008 0.92700005
-0.044024546 0.214008 0.92700005
-0.041573316 0.21446972 0.92900002
-0.039111122 0.21493144 0.93100005
-0.036520161 0.21470059 0.93000007
-0.034007736 0.21493144 0.93100005
-0.03148983 0.21516231 0.93200004
-0.028966442 0.21539319 0.93300003
-0.026409267 0.21539319 0.93300003
-0.023877654 0.21562403 0.93400002
-0.021363387 0.21608575 0.93600005
-0.018818073 0.21631663 0.93700004
-0.016284619 0.21677834 0.93900007
-0.013710999 0.21677834 0.93900007
-0.011172961 0.21747093 0.94200003
-0.0086549604 0.21908693 0.94900006
-0.0060603106 0.21931781 0.95000005
-0.0034638185 0.21977952 0.95200002
-0.00085546548 0.2200104 0.95300007
0.0017602124 0.22047211 0.95500004
0.0043960214 0.22139555 0.95900005
0.0070464322 0.22208814 0.96200007
0.0097636152 0.22393502 0.97000003
0.012627102 0.2276288 0.98600006
0.01588924 0.23593979 1.0220001
-0.14982247 0.23079844 0.98800004
-0.14220081 0.22308959 0.95500004
-0.13856022 0.22145437 0.94800007
-0.1342409 0.21865115 0.93600005
-0.12942463 0.21491352 0.92000002
-0.12607545 0.21351191 0.91400003
-0.12316477 0.2128111 0.91100007
-0.12066789 0.2128111 0.91100007
-0.11817101 0.2128111 0.91100007
-0.11567413 0.2128111 0.91100007
-0.11317725 0.2128111 0.91100007
-0.11068038 0.2128111 0.91100007
-0.1081835 0.2128111 0.91100007
-0.10533858 0.21211031 0.90800005
-0.10273666 0.21187671 0.90700006
-0.10025074 0.21187671 0.90700006
-0.097872615 0.21211031 0.90800005
-0.095383964 0.21211031 0.90800005
-0.092997618 0.2123439 0.90900004
-0.090605788 0.21257751 0.91000003
-0.088208474 0.2128111 0.91100007
-0.085711598 0.2128111 0.91100007
-0.083123378 0.21257751 0.91000003
-0.080629244 0.21257751 0.91000003
-0.078306831 0.21304472 0.91200006
-0.075724088 0.2128111 0.91100007
-0.073307596 0.21304472 0.91200006
-0.070885614 0.21327831 0.91300005
-0.068458155 0.21351191 0.91400003
-0.066025212 0.21374552 0.91500002
-0.063447952 0.21351191 0.91400003
-0.061009534 0.21374552 0.91500002
-0.058565632 0.21397911 0.91600007
-0.056116238 0.21421273 0.91700006
-0.05371983 0.21467993 0.91900003
-0.051256735 0.21491352 0.92000002
-0.048894115 0.21561433 0.92300004
-0.046414576 0.21584794 0.92400002
-0.043929562 0.21608153 0.92500007
-0.041394312 0.21608153 0.92500007
-0.038943086 0.21654873 0.92700005
-0.03644162 0.21678235 0.92800003
-0.033934679 0.21701594 0.92900002
-0.031388465 0.21701594 0.92900002
-0.028873302 0.21724954 0.93000007
-0.026324349 0.21724954 0.93000007
-0.02380096 0.21748313 0.93100005
-0.021249266 0.21748313 0.93100005
-0.018737741 0.21795036 0.93300003
-0.01621525 0.21841756 0.93500006
-0.013652592 0.21841756 0.93500006
-0.011113658 0.21888475 0.93700004
-0.0086093592 0.22051997 0.94400007
-0.0060347938 0.22098717 0.94600004
-0.0034492647 0.22145437 0.94800007
-0.0008527725 0.22192158 0.95000005
0.0017528398 0.22215518 0.95100003
0.0043731015 0.22285597 0.95400006
0.0070171328 0.22379038 0.95800006
0.0096931569 0.22495839 0.96300006
0.012511846 0.22822882 0.97700006
0.015656034 0.23523688 1.0070001
-0.14982247 0.23350635 0.98800004
-0.14413653 0.22877951 0.96800005
-0.1397295 0.22594339 0.95600003
-0.13495798 0.22239827 0.94100004
-0.12984666 0.21814409 0.92300004
-0.12607545 0.21601701 0.91400003
-0.12329996 0.21554433 0.91200006
-0.12066789 0.21530798 0.91100007
-0.11830073 0.21554433 0.91200006
-0.11567413 0.21530798 0.91100007
-0.11317725 0.21530798 0.91100007
-0.11055888 0.21507165 0.91000003
-0.10794599 0.2148353 0.90900004
-0.10522257 0.21436262 0.90700006
-0.10262338 0.21412629 0.90600002
-0.10002969 0.21388993 0.90500003
-0.097764827 0.21436262 0.90700006
-0.095278911 0.21436262 0.90700006
-0.092997618 0.2148353 0.90900004
-0.090605788 0.21507165 0.91000003
-0.088208474 0.21530798 0.91100007
-0.085711598 0.21530798 0.91100007
-0.083214723 0.21530798 0.91100007
-0.080806449 0.21554433 0.91200006
-0.078306831 0.21554433 0.91200006
-0.075807214 0.21554433 0.91200006
-0.073307596 0.21554433 0.91200006
-0.070807979 0.21554433 0.91200006
-0.068383262 0.21578066 0.91300005
-0.065953054 0.21601701 0.91400003
-0.063517377 0.21625337 0.91500002
-0.061076213 0.2164897 0.91600007
-0.058565632 0.2164897 0.91600007
-0.056116238 0.21672605 0.91700006
-0.053602919 0.21672605 0.91700006
-0.051145311 0.21696238 0.91800004
-0.048788168 0.21767141 0.92100006
-0.046364348 0.21814409 0.92300004
-0.043834578 0.21814409 0.92300004
-0.04134956 0.21838045 0.92400002
-0.038859066 0.21861678 0.92500007
-0.036402356 0.21908946 0.92700005
-0.033898152 0.21932581 0.92800003
-0.031388465 0.21956214 0.92900002
-0.028873302 0.21979849 0.93000007
-0.026352653 0.22003482 0.93100005
-0.02380096 0.22003482 0.93100005
-0.021249266 0.22003482 0.93100005
-0.018737741 0.22050753 0.93300003
-0.01621525 0.22098021 0.93500006
-0.013667194 0.22121654 0.93600005
-0.011125518 0.22168922 0.93800002
-0.0086093592 0.22310729 0.94400007
-0.0060411724 0.22381631 0.94700003
-0.0034456262 0.22381631 0.94700003
-0.00085187488 0.22428899 0.94900006
0.0017528398 0.22476169 0.95100003
0.0043731015 0.22547071 0.95400006
0.0070171328 0.22641607 0.95800006
0.0096931569 0.22759779 0.96300006
0.012473427 0.23019755 0.97400004
0.01550056 0.23563343 0.99700004
-0.15240039 0.24027868 1.005
-0.14413653 0.23143262 0.96800005
-0.1397295 0.22856361 0.95600003
-0.13495798 0.22497736 0.94100004
-0.12942463 0.21995661 0.92000002
-0.12579958 0.21804395 0.91200006
-0.12302957 0.21756579 0.91000003
-0.12040297 0.21732669 0.90900004
-0.11804129 0.21756579 0.91000003
-0.11542018 0.21732669 0.90900004
-0.11305302 0.21756579 0.91000003
-0.1103159 0.21708763 0.90800005
-0.10770848 0.21684852 0.90700006
-0.10487454 0.21613127 0.90400004
-0.10251012 0.21637036 0.90500003
-0.10002969 0.21637036 0.90500003
-0.097764827 0.21684852 0.90700006
-0.095278911 0.21684852 0.90700006
-0.092895307 0.21708763 0.90800005
-0.090406656 0.21708763 0.90800005
-0.087821178 0.21684852 0.90700006
-0.085429341 0.21708763 0.90800005
-0.083032034 0.21732669 0.90900004
-0.080629244 0.21756579 0.91000003
-0.078220963 0.21780486 0.91100007
-0.075640969 0.21756579 0.91000003
-0.073146835 0.21756579 0.91000003
-0.070575051 0.21732669 0.90900004
-0.06815856 0.21756579 0.91000003
-0.065808736 0.21804395 0.91200006
-0.063447952 0.21852212 0.91400003
-0.060876179 0.21828303 0.91300005
-0.05837382 0.21828303 0.91300005
-0.055871461 0.21828303 0.91300005
-0.053427555 0.21852212 0.91400003
-0.050922453 0.21852212 0.91400003
-0.048576273 0.21923937 0.91700006
-0.046163417 0.21971753 0.91900003
-0.043739595 0.2201957 0.92100006
-0.041215308 0.2201957 0.92100006
-0.038775045 0.22067386 0.92300004
-0.036284544 0.22091296 0.92400002
-0.033788566 0.22115202 0.92500007
-0.031287104 0.22139113 0.92600006
-0.028811209 0.22186929 0.92800003
-0.026267737 0.22186929 0.92800003
-0.023724265 0.22186929 0.92800003
-0.021180794 0.22186929 0.92800003
-0.01867749 0.22234745 0.93000007
-0.016180566 0.22306471 0.93300003
-0.013652592 0.22354287 0.93500006
-0.011089935 0.22354287 0.93500006
-0.0085819997 0.22497736 0.94100004
-0.0060156556 0.22545552 0.94300002
-0.0034310725 0.22545552 0.94300002
-0.0008491819 0.22617279 0.94600004
0.0017491534 0.22689001 0.94900006
0.0043639336 0.22760728 0.95200002
0.0069951592 0.22832453 0.95500004
0.0096428283 0.22904177 0.95800006
0.012396588 0.23143262 0.96800005
0.015360636 0.23621428 0.98800004
0.01867206 0.24410401 1.021
-0.15437174 0.24617693 1.018
-0.14577444 0.23674577 0.97900003
-0.14016798 0.2319093 0.95900005
-0.13481456 0.22731464 0.94000006
-0.12942463 0.22247815 0.92000002
-0.12579958 0.22054356 0.91200006
-0.12302957 0.22005992 0.91000003
-0.12066789 0.22030173 0.91100007
-0.11817101 0.22030173 0.91100007
-0.11554716 0.22005992 0.91000003
-0.11305302 0.22005992 0.91000003
-0.1103159 0.21957627 0.90800005
-0.10758973 0.21909264 0.90600002
-0.10499056 0.21885079 0.90500003
-0.10251012 0.21885079 0.90500003
-0.10014021 0.21909264 0.90600002
-0.09765704 0.21909264 0.90600002
-0.095383964 0.21957627 0.90800005
-0.092997618 0.21981809 0.90900004
-0.090506218 0.21981809 0.90900004
-0.087821178 0.21933444 0.90700006
-0.085335262 0.21933444 0.90700006
-0.083032034 0.21981809 0.90900004
-0.080717847 0.22030173 0.91100007
-0.078135103 0.22005992 0.91000003
-0.075557843 0.21981809 0.90900004
-0.073146835 0.22005992 0.91000003
-0.070575051 0.21981809 0.90900004
-0.06815856 0.22005992 0.91000003
-0.065736577 0.22030173 0.91100007
-0.063378543 0.22078538 0.91300005
-0.060876179 0.22078538 0.91300005
-0.058437753 0.22102721 0.91400003
-0.055993851 0.22126904 0.91500002
-0.053544465 0.22151086 0.91600007
-0.051033884 0.22151086 0.91600007
-0.048576273 0.22175269 0.91700006
-0.046163417 0.22223634 0.91900003
-0.043739595 0.22271998 0.92100006
-0.041304812 0.22320363 0.92300004
-0.038775045 0.22320363 0.92300004
-0.036245275 0.22320363 0.92300004
-0.033715509 0.22320363 0.92300004
-0.031253319 0.22368728 0.92500007
-0.028780162 0.22417092 0.92700005
-0.026239432 0.22417092 0.92700005
-0.023724265 0.22441275 0.92800003
-0.021203618 0.22465457 0.92900002
-0.018697573 0.22513822 0.93100005
-0.016180566 0.22562188 0.93300003
-0.013652592 0.22610553 0.93500006
-0.011089935 0.22610553 0.93500006
-0.0085819997 0.22755647 0.94100004
-0.0060092765 0.2277983 0.94200003
-0.0034310725 0.22804011 0.94300002
-0.0008491819 0.22876559 0.94600004
0.0017509966 0.22973289 0.95000005
0.0043685175 0.23045836 0.95300007
0.0070024836 0.23118381 0.95600003
0.0096428283 0.23166746 0.95800006
0.012358168 0.23336023 0.96500003
0.015251805 0.23722942 0.98100007
0.018452603 0.24400051 1.0090001
-0.1560398 0.25165728 1.029
-0.14785907 0.24285294 0.99300003
-0.14089878 0.23576057 0.96400005
-0.13524483 0.23062469 0.94300002
-0.12956531 0.22524427 0.92100006
-0.12593751 0.22328775 0.91300005
-0.12329996 0.22304319 0.91200006
-0.12066789 0.22279862 0.91100007
-0.11817101 0.22279862 0.91100007
-0.11554716 0.22255406 0.91000003
-0.11305302 0.22255406 0.91000003
-0.1100729 0.2215758 0.90600002
-0.10747099 0.22133122 0.90500003
-0.10487454 0.22108665 0.90400004
-0.10239685 0.22108665 0.90400004
-0.099919155 0.22108665 0.90400004
-0.097441465 0.22108665 0.90400004
-0.095068827 0.22133122 0.90500003
-0.092588387 0.22133122 0.90500003
-0.090008393 0.22108665 0.90400004
-0.087433867 0.22084211 0.90300006
-0.084864832 0.22059752 0.90200007
-0.082575314 0.22108665 0.90400004
-0.080274828 0.2215758 0.90600002
-0.077877522 0.22182035 0.90700006
-0.075308479 0.2215758 0.90600002
-0.072986066 0.22206493 0.90800005
-0.070497416 0.22206493 0.90800005
-0.068083659 0.22230949 0.90900004
-0.065447949 0.22182035 0.90700006
-0.06303145 0.22206493 0.90800005
-0.060609471 0.22230949 0.90900004
-0.058245946 0.22279862 0.91100007
-0.055810265 0.22304319 0.91200006
-0.053427555 0.22353232 0.91400003
-0.050922453 0.22353232 0.91400003
-0.048470329 0.22377689 0.91500002
-0.046012722 0.22402143 0.91600007
-0.043644615 0.22475514 0.91900003
-0.041125812 0.22475514 0.91900003
-0.038607005 0.22475514 0.91900003
-0.036088202 0.22475514 0.91900003
-0.033605926 0.2249997 0.92000002
-0.031151956 0.22548883 0.92200005
-0.028655976 0.2257334 0.92300004
-0.026182819 0.22622253 0.92500007
-0.023673136 0.2264671 0.92600006
-0.021180794 0.22695623 0.92800003
-0.018657407 0.22720078 0.92900002
-0.016128538 0.22744535 0.93000007
-0.013594185 0.22768991 0.93100005
-0.011054353 0.22793448 0.93200004
-0.0085546384 0.22940187 0.93800002
-0.0059901383 0.22964644 0.93900007
-0.0034237953 0.23013556 0.94100004
-0.00084648893 0.23062469 0.94300002
0.0017454671 0.23160295 0.94700003
0.0043501817 0.23209208 0.94900006
0.0069731842 0.23282577 0.95200002
0.009612632 0.23355947 0.95500004
0.012306943 0.23502687 0.96100003
0.015127427 0.23796165 0.97300005
0.018214859 0.24358663 0.99600005
0.021617629 0.25141272 1.028
-0.14771016 0.24532725 0.99200004
-0.14031415 0.23741347 0.96000004
-0.13467115 0.23222005 0.93900007
-0.12914327 0.22702663 0.91800004
-0.12538576 0.22480088 0.90900004
-0.12275917 0.22455359 0.90800005
-0.12027051 0.22455359 0.90800005
-0.11791158 0.22480088 0.90900004
-0.11542018 0.22480088 0.90900004
-0.11280455 0.22455359 0.90800005
-0.1100729 0.22405897 0.90600002
-0.10747099 0.22381166 0.90500003
-0.10487454 0.22356434 0.90400004
-0.10239685 0.22356434 0.90400004
-0.099808626 0.22331706 0.90300006
-0.097441465 0.22356434 0.90400004
-0.094858721 0.22331706 0.90300006
-0.092383772 0.22331706 0.90300006
-0.089908823 0.22331706 0.90300006
-0.087433867 0.22331706 0.90300006
-0.085053004 0.22356434 0.90400004
-0.082575314 0.22356434 0.90400004
-0.080274828 0.22405897 0.90600002
-0.077791654 0.22405897 0.90600002
-0.075308479 0.22405897 0.90600002
-0.072986066 0.22455359 0.90800005
-0.070575051 0.22480088 0.90900004
-0.068008758 0.22455359 0.90800005
-0.065447949 0.22430627 0.90700006
-0.062962033 0.22430627 0.90700006
-0.060542792 0.22455359 0.90800005
-0.058182012 0.2250482 0.91000003
-0.055749066 0.22529548 0.91100007
-0.053427555 0.22603741 0.91400003
-0.050978169 0.22628473 0.91500002
-0.048470329 0.22628473 0.91500002
-0.046012722 0.22653203 0.91600007
-0.043549631 0.22677934 0.91700006
-0.04108106 0.22702663 0.91800004
-0.038522985 0.22677934 0.91700006
-0.03604893 0.22702663 0.91800004
-0.033569399 0.22727394 0.91900003
-0.031151956 0.22801585 0.92200005
-0.028687021 0.22851048 0.92400002
-0.026211124 0.22900508 0.92600006
-0.023698702 0.22925238 0.92700005
-0.021203618 0.229747 0.92900002
-0.018657407 0.229747 0.92900002
-0.016128538 0.22999431 0.93000007
-0.013608787 0.23048891 0.93200004
-0.011066214 0.23073623 0.93300003
-0.0085546384 0.23197274 0.93800002
-0.0059901383 0.23222005 0.93900007
-0.0034201569 0.23246735 0.94000006
-0.0008455913 0.23296198 0.94200003
0.0017417808 0.23370388 0.94500005
0.0043410137 0.2341985 0.94700003
0.0069731842 0.23543502 0.95200002
0.009612632 0.23617695 0.95500004
0.012281331 0.23716617 0.95900005
0.015049691 0.23939192 0.96800005
0.018068556 0.24433804 0.98800004
0.021428369 0.2520045 1.0190001
-0.14756125 0.2477961 0.99100006
-0.14031415 0.24004464 0.96000004
-0.13524483 0.23579386 0.94300002
-0.12942463 0.23004279 0.92000002
-0.12579958 0.22804242 0.91200006
-0.12289437 0.22729227 0.90900004
-0.12040297 0.22729227 0.90900004
-0.11791158 0.22729227 0.90900004
-0.11542018 0.22729227 0.90900004
-0.11280455 0.22704224 0.90800005
-0.1103159 0.22704224 0.90800005
-0.10758973 0.22654215 0.90600002
-0.10487454 0.22604203 0.90400004
-0.10228357 0.22579201 0.90300006
-0.099808626 0.22579201 0.90300006
-0.097441465 0.22604203 0.90400004
-0.094858721 0.22579201 0.90300006
-0.092383772 0.22579201 0.90300006
-0.089610122 0.22504185 0.90000004
-0.087337039 0.22554195 0.90200007
-0.084864832 0.22554195 0.90200007
-0.082392626 0.22554195 0.90200007
-0.079920411 0.22554195 0.90200007
-0.077534065 0.22579201 0.90300006
-0.075142242 0.22604203 0.90400004
-0.072825305 0.22654215 0.90600002
-0.070342131 0.22654215 0.90600002
-0.067858957 0.22654215 0.90600002
-0.065303624 0.22629209 0.90500003
-0.062823191 0.22629209 0.90500003
-0.060409442 0.22654215 0.90600002
-0.057926267 0.22654215 0.90600002
-0.05556548 0.22704224 0.90800005
-0.053193741 0.22754233 0.91000003
-0.050755315 0.22779237 0.91100007
-0.048311409 0.22804242 0.91200006
-0.045862027 0.22829245 0.91300005
-0.043407157 0.22854251 0.91400003
-0.040902056 0.22854251 0.91400003
-0.038354944 0.22829245 0.91300005
-0.035931125 0.22879256 0.91500002
-0.033459812 0.2290426 0.91600007
-0.031050595 0.22979274 0.91900003
-0.028593881 0.23029284 0.92100006
-0.026154513 0.23104298 0.92400002
-0.023622004 0.23104298 0.92400002
-0.021135146 0.23154308 0.92600006
-0.018597156 0.23154308 0.92600006
-0.016076509 0.23179312 0.92700005
-0.01355038 0.23204318 0.92800003
-0.011042492 0.2327933 0.93100005
-0.0085090389 0.23329341 0.93300003
-0.005971001 0.23404354 0.93600005
-0.00341288 0.23454362 0.93800002
-0.00084289833 0.23479368 0.93900007
0.0017344082 0.23529378 0.94100004
0.0043226779 0.23579386 0.94300002
0.0069365609 0.23679404 0.94700003
0.00957237 0.23779425 0.95100003
0.012230106 0.23879443 0.95500004
0.01500305 0.24129488 0.96500003
0.017958827 0.24554569 0.98200005
0.02121808 0.25229692 1.0090001
-0.15543324 0.25910702 1.0250001
-0.14651895 0.24874273 0.98400003
-0.13987565 0.24191748 0.95700002
-0.13467115 0.2373673 0.93900007
-0.12928395 0.23231156 0.91900003
-0.12538576 0.22978367 0.90900004
-0.12248877 0.22902532 0.90600002
-0.11987315 0.22877252 0.90500003
-0.11752243 0.22902532 0.90600002
-0.11503925 0.22902532 0.90600002
-0.11255608 0.22902532 0.90600002
-0.1100729 0.22902532 0.90600002
-0.10735223 0.22851974 0.90400004
-0.1045265 0.22776139 0.90100002
-0.10194376 0.22750859 0.90000004
-0.09947703 0.22750859 0.90000004
-0.097225882 0.22801416 0.90200007
-0.094648622 0.22776139 0.90100002
-0.092076845 0.22750859 0.90000004
-0.089610122 0.22750859 0.90000004
-0.087337039 0.22801416 0.90200007
-0.084864832 0.22801416 0.90200007
-0.082392626 0.22801416 0.90200007
-0.079920411 0.22801416 0.90200007
-0.077705793 0.22877252 0.90500003
-0.075225361 0.22877252 0.90500003
-0.072825305 0.22902532 0.90600002
-0.070342131 0.22902532 0.90600002
-0.067858957 0.22902532 0.90600002
-0.065303624 0.22877252 0.90500003
-0.062823191 0.22877252 0.90500003
-0.060409442 0.22902532 0.90600002
-0.057926267 0.22902532 0.90600002
-0.05556548 0.2295309 0.90800005
-0.053135283 0.22978367 0.90900004
-0.050755315 0.23028925 0.91100007
-0.048311409 0.23054203 0.91200006
-0.045862027 0.23079482 0.91300005
-0.043359663 0.23079482 0.91300005
-0.040902056 0.23104762 0.91400003
-0.038438965 0.23130041 0.91500002
-0.035970397 0.23155318 0.91600007
-0.033459812 0.23155318 0.91600007
-0.031050595 0.23231156 0.91900003
-0.028593881 0.23281713 0.92100006
-0.026126208 0.23332269 0.92300004
-0.023622004 0.23357549 0.92400002
-0.021135146 0.23408107 0.92600006
-0.018617239 0.23433384 0.92700005
-0.016093852 0.23458664 0.92800003
-0.013564982 0.23483941 0.92900002
-0.011042492 0.23534499 0.93100005
-0.0085090389 0.23585059 0.93300003
-0.005971001 0.23660894 0.93600005
-0.00341288 0.2371145 0.93800002
-0.00084289833 0.2373673 0.93900007
0.001732565 0.23762007 0.94000006
0.0043180939 0.23812567 0.94200003
0.0069365609 0.23938958 0.94700003
0.00957237 0.24040076 0.95100003
0.012230106 0.24141189 0.95500004
0.01500305 0.24393976 0.96500003
0.017922252 0.24773158 0.98000002
0.021112937 0.25379848 1.0040001
-0.15452339 0.26038316 1.0190001
-0.14622115 0.25092864 0.98200005
-0.14031415 0.245307 0.96000004
-0.13495798 0.24045198 0.94100004
-0.12956531 0.23534141 0.92100006
-0.12579958 0.23304166 0.91200006
-0.12289437 0.23227507 0.90900004
-0.12027051 0.23201956 0.90800005
-0.11765214 0.23176402 0.90700006
-0.11516622 0.23176402 0.90700006
-0.11268032 0.23176402 0.90700006
-0.1101944 0.23176402 0.90700006
-0.10747099 0.23125295 0.90500003
-0.10464252 0.23048636 0.90200007
-0.10205703 0.23023085 0.90100002
-0.099698097 0.23048636 0.90200007
-0.097333677 0.2307419 0.90300006
-0.094648622 0.23023085 0.90100002
-0.092076845 0.22997531 0.90000004
-0.089809254 0.23048636 0.90200007
-0.087627523 0.23125295 0.90500003
-0.085241176 0.23150849 0.90600002
-0.082666658 0.23125295 0.90500003
-0.080097623 0.23099743 0.90400004
-0.077705793 0.23125295 0.90500003
-0.075225361 0.23125295 0.90500003
-0.072825305 0.23150849 0.90600002
-0.070342131 0.23150849 0.90600002
-0.067858957 0.23150849 0.90600002
-0.065159313 0.2307419 0.90300006
-0.06261494 0.23048636 0.90200007
-0.060209408 0.2307419 0.90300006
-0.057798397 0.23099743 0.90400004
-0.055443093 0.23150849 0.90600002
-0.053076826 0.23201956 0.90800005
-0.050643887 0.23227507 0.90900004
-0.048205465 0.23253061 0.91000003
-0.045711327 0.23253061 0.91000003
-0.043264683 0.23278612 0.91100007
-0.040812556 0.23304166 0.91200006
-0.038396958 0.23355271 0.91400003
-0.035891857 0.23355271 0.91400003
-0.033386756 0.23355271 0.91400003
-0.030915443 0.23380825 0.91500002
-0.028469697 0.2343193 0.91700006
-0.026041292 0.23508587 0.92000002
-0.02354531 0.23534141 0.92100006
-0.021066673 0.23585247 0.92300004
-0.01855699 0.23610801 0.92400002
-0.016041825 0.23636352 0.92500007
-0.013506575 0.23636352 0.92500007
-0.010995048 0.23687458 0.92700005
-0.0084634377 0.23713011 0.92800003
-0.0059518632 0.23840776 0.93300003
-0.0034056031 0.23917432 0.93600005
-0.00084110303 0.23942986 0.93700004
0.0017288787 0.23968539 0.93800002
0.0043089259 0.24019644 0.94000006
0.0069219107 0.24147408 0.94500005
0.0095421728 0.24224067 0.94800007
0.01217888 0.24300726 0.95100003
0.014956408 0.24581808 0.96200007
0.017849099 0.24939544 0.97600007
0.021007793 0.2552726 0.99900007
0.024292564 0.26114976 1.0220001
-0.15315861 0.26085162 1.01
-0.14532775 0.25207049 0.97600007
-0.1397295 0.2469051 0.95600003
-0.1342409 0.24173972 0.93600005
-0.1290026 0.23683263 0.91700006
-0.12538576 0.23476647 0.90900004
-0.12262397 0.23424993 0.90700006
-0.11987315 0.23373339 0.90500003
-0.11739272 0.23373339 0.90500003
-0.11478531 0.23347512 0.90400004
-0.11243185 0.23373339 0.90500003
-0.10995142 0.23373339 0.90500003
-0.10723348 0.23321685 0.90300006
-0.10441048 0.23244204 0.90000004
-0.1018305 0.23218378 0.89900005
-0.09947703 0.23244204 0.90000004
-0.097118095 0.23270032 0.90100002
-0.094543576 0.23244204 0.90000004
-0.091974549 0.23218378 0.89900005
-0.089610122 0.23244204 0.90000004
-0.087337039 0.23295859 0.90200007
-0.084864832 0.23295859 0.90200007
-0.082392626 0.23295859 0.90200007
-0.079831809 0.23270032 0.90100002
-0.077534065 0.23321685 0.90300006
-0.07497599 0.23295859 0.90200007
-0.072503783 0.23295859 0.90200007
-0.070031568 0.23295859 0.90200007
-0.067634262 0.23321685 0.90300006
-0.065159313 0.23321685 0.90300006
-0.06261494 0.23295859 0.90200007
-0.060209408 0.23321685 0.90300006
-0.057798397 0.23347512 0.90400004
-0.055443093 0.23399167 0.90600002
-0.053076826 0.2345082 0.90800005
-0.050643887 0.23476647 0.90900004
-0.048205465 0.23502474 0.91000003
-0.045711327 0.23502474 0.91000003
-0.04321719 0.23502474 0.91000003
-0.040767804 0.235283 0.91100007
-0.038354944 0.23579954 0.91300005
-0.035891857 0.23605782 0.91400003
-0.033459812 0.23657435 0.91600007
-0.03098302 0.23683263 0.91700006
-0.02853179 0.23734917 0.91900003
-0.026041292 0.23760742 0.92000002
-0.023519747 0.23760742 0.92000002
-0.021066673 0.23838224 0.92300004
-0.018536907 0.23838224 0.92300004
-0.016059166 0.23915705 0.92600006
-0.013521177 0.23915705 0.92600006
-0.010995048 0.2394153 0.92700005
-0.0084543172 0.2394153 0.92700005
-0.0059454837 0.24070665 0.93200004
-0.0033983262 0.24122319 0.93400002
-0.00083930767 0.24148147 0.93500006
0.0017251924 0.24173972 0.93600005
0.0043089259 0.2427728 0.94000006
0.0069145863 0.24380589 0.94400007
0.0095522376 0.24509722 0.94900006
0.01217888 0.24561377 0.95100003
0.014956408 0.24845473 0.96200007
0.017849099 0.25207049 0.97600007
0.021007793 0.25801066 0.99900007
0.024149945 0.26240125 1.016
-0.15209711 0.26179278 1.003
-0.14502993 0.2542235 0.97400004
-0.1397295 0.24952532 0.95600003
-0.13409747 0.24404413 0.93500006
-0.12914327 0.23960695 0.91800004
-0.1255237 0.23751888 0.91000003
-0.12275917 0.23699686 0.90800005
-0.12013806 0.23673584 0.90700006
-0.11752243 0.23647484 0.90600002
-0.11491229 0.23621382 0.90500003
-0.11255608 0.23647484 0.90600002
-0.1100729 0.23647484 0.90600002
-0.10747099 0.23621382 0.90500003
-0.1045265 0.2351698 0.90100002
-0.1018305 0.23464778 0.89900005
-0.09947703 0.23490877 0.90000004
-0.097118095 0.2351698 0.90100002
-0.094648622 0.2351698 0.90100002
-0.092179157 0.2351698 0.90100002
-0.089709684 0.2351698 0.90100002
-0.087337039 0.23543079 0.90200007
-0.084770747 0.2351698 0.90100002
-0.082301274 0.2351698 0.90100002
-0.079920411 0.23543079 0.90200007
-0.077534065 0.23569182 0.90300006
-0.07497599 0.23543079 0.90200007
-0.072423398 0.2351698 0.90100002
-0.069953926 0.2351698 0.90100002
-0.067484461 0.2351698 0.90100002
-0.065087147 0.23543079 0.90200007
-0.06261494 0.23543079 0.90200007
-0.060209408 0.23569182 0.90300006
-0.05786233 0.23621382 0.90500003
-0.055443093 0.23647484 0.90600002
-0.053076826 0.23699686 0.90800005
-0.050643887 0.23725785 0.90900004
-0.048205465 0.23751888 0.91000003
-0.045711327 0.23751888 0.91000003
-0.04321719 0.23751888 0.91000003
-0.040767804 0.23777987 0.91100007
-0.038354944 0.23830189 0.91300005
-0.035891857 0.23856291 0.91400003
-0.033459812 0.23908493 0.91600007
-0.03098302 0.23934595 0.91700006
-0.02853179 0.23986797 0.91900003
-0.026041292 0.24012896 0.92000002
-0.023519747 0.24012896 0.92000002
-0.021021025 0.24038999 0.92100006
-0.018516824 0.24065098 0.92200005
-0.016007138 0.24091201 0.92300004
-0.013477372 0.24091201 0.92300004
-0.010959466 0.24117301 0.92400002
-0.0084360782 0.24143402 0.92500007
-0.0059263464 0.24247806 0.92900002
-0.0033874109 0.24300008 0.93100005
-0.00083751237 0.24352211 0.93300003
0.0017215061 0.2437831 0.93400002
0.004299758 0.24482714 0.93800002
0.0068999366 0.2458712 0.94200003
0.0095119756 0.24665421 0.94500005
0.01214046 0.24743725 0.94800007
0.014909768 0.25030836 0.95900005
0.017830811 0.2544845 0.97500002
0.020986764 0.26048774 0.99800003
0.024054864 0.26414186 1.0120001
-0.15058069 0.2619043 0.99300003
-0.14398763 0.25504678 0.96700007
-0.13870637 0.25029927 0.94900006
-0.13338037 0.24528803 0.93000007
-0.12872124 0.24133177 0.91500002
-0.12524782 0.23948552 0.90800005
-0.12248877 0.23895802 0.90600002
-0.11974069 0.2384305 0.90400004
-0.117263 0.2384305 0.90400004
-0.11453135 0.237903 0.90200007
-0.11218338 0.23816676 0.90300006
-0.10958693 0.237903 0.90200007
-0.10711472 0.237903 0.90200007
-0.10417847 0.236848 0.89800006
-0.10171723 0.236848 0.89800006
-0.099255979 0.236848 0.89800006
-0.096902519 0.23711176 0.89900005
-0.094543576 0.2373755 0.90000004
-0.092076845 0.2373755 0.90000004
-0.089610122 0.2373755 0.90000004
-0.087046564 0.23711176 0.89900005
-0.084488489 0.236848 0.89800006
-0.082118593 0.23711176 0.89900005
-0.079654604 0.23711176 0.89900005
-0.077276476 0.2373755 0.90000004
-0.074726626 0.23711176 0.89900005
-0.072182253 0.236848 0.89800006
-0.069721006 0.236848 0.89800006
-0.067334659 0.23711176 0.89900005
-0.064942837 0.2373755 0.90000004
-0.062545523 0.23763926 0.90100002
-0.060142729 0.237903 0.90200007
-0.057798397 0.2384305 0.90400004
-0.055381894 0.23869427 0.90500003
-0.052959919 0.23895802 0.90600002
-0.050476745 0.23895802 0.90600002
-0.048099518 0.23948552 0.90800005
-0.04561086 0.23948552 0.90800005
-0.0431697 0.23974925 0.90900004
-0.040633552 0.23948552 0.90800005
-0.038186908 0.23974925 0.90900004
-0.03573478 0.24001302 0.91000003
-0.033313699 0.24054052 0.91200006
-0.030847868 0.24080426 0.91300005
-0.028407604 0.24133177 0.91500002
-0.025956374 0.24185927 0.91700006
-0.023468615 0.24212301 0.91800004
-0.021021025 0.24291427 0.92100006
-0.018516824 0.24317801 0.92200005
-0.016007138 0.24344178 0.92300004
-0.013477372 0.24344178 0.92300004
-0.010959466 0.24370553 0.92400002
-0.0084360782 0.24396926 0.92500007
-0.0059263464 0.24502426 0.92900002
-0.0033874109 0.24555176 0.93100005
-0.00083751237 0.24607928 0.93300003
0.0017215061 0.24634302 0.93400002
0.004299758 0.24739802 0.93800002
0.0068999366 0.24845304 0.94200003
0.0095119756 0.24924427 0.94500005
0.01214046 0.25003552 0.94800007
0.014909768 0.25293678 0.95900005
0.017830811 0.25715679 0.97500002
0.020986764 0.26322308 0.99800003
0.024054864 0.26691556 1.0120001
-0.15731627 0.27155471 1.0190001
-0.14982247 0.26329347 0.98800004
-0.14368983 0.25716418 0.96500003
-0.13856022 0.25263381 0.94800007
-0.13338037 0.24783698 0.93000007
-0.12872124 0.24383962 0.91500002
-0.12538576 0.24224065 0.90900004
-0.12248877 0.24144119 0.90600002
-0.1200056 0.24144119 0.90600002
-0.11739272 0.2411747 0.90500003
-0.11478531 0.24090819 0.90400004
-0.11218338 0.24064171 0.90300006
-0.10946544 0.24010873 0.90100002
-0.10699597 0.24010873 0.90100002
-0.10429449 0.23957574 0.89900005
-0.1018305 0.23957574 0.89900005
-0.09947703 0.23984224 0.90000004
-0.097118095 0.24010873 0.90100002
-0.094753675 0.24037521 0.90200007
-0.092179157 0.24010873 0.90100002
-0.089610122 0.23984224 0.90000004
-0.087143391 0.23984224 0.90000004
-0.084676661 0.23984224 0.90000004
-0.082209937 0.23984224 0.90000004
-0.079743207 0.23984224 0.90000004
-0.077276476 0.23984224 0.90000004
-0.074892871 0.24010873 0.90100002
-0.072343022 0.23984224 0.90000004
-0.069876291 0.23984224 0.90000004
-0.067409568 0.23984224 0.90000004
-0.065014988 0.24010873 0.90100002
-0.06261494 0.24037521 0.90200007
-0.060276087 0.24090819 0.90400004
-0.05786233 0.2411747 0.90500003
-0.055381894 0.2411747 0.90500003
-0.052901462 0.2411747 0.90500003
-0.050476745 0.24144119 0.90600002
-0.048046548 0.24170767 0.90700006
-0.04561086 0.24197417 0.90800005
-0.0431697 0.24224065 0.90900004
-0.040678304 0.24224065 0.90900004
-0.038144898 0.24197417 0.90800005
-0.035695512 0.24224065 0.90900004
-0.033240642 0.24250716 0.91000003
-0.030881656 0.24357311 0.91400003
-0.028407604 0.24383962 0.91500002
-0.025956374 0.24437259 0.91700006
-0.023443053 0.24437259 0.91700006
-0.020998202 0.24517205 0.92000002
-0.018496741 0.24543856 0.92100006
-0.016007138 0.24597153 0.92300004
-0.013477372 0.24597153 0.92300004
-0.010959466 0.24623804 0.92400002
-0.0084360782 0.24650452 0.92500007
-0.005932725 0.24783698 0.93000007
-0.0033874109 0.24810345 0.93100005
-0.00083751237 0.24863645 0.93300003
0.0017233492 0.24916944 0.93500006
0.004304342 0.25023541 0.93900007
0.0068999366 0.25103489 0.94200003
0.0095119756 0.25183433 0.94500005
0.012127654 0.25236732 0.94700003
0.01489422 0.25529873 0.95800006
0.017830811 0.2598291 0.97500002
0.02102882 0.26649138 1
0.024149945 0.27075523 1.016
-0.16120902 0.27623221 1.026
-0.15484613 0.27003986 1.003
-0.14830606 0.26330906 0.97800004
-0.1426475 0.25792441 0.95800006
-0.13782941 0.25388595 0.94300002
-0.13266326 0.24903977 0.92500007
-0.12829921 0.24553975 0.91200006
-0.12497195 0.24392436 0.90600002
-0.12221839 0.24338588 0.90400004
-0.11974069 0.24338588 0.90400004
-0.11713328 0.24311666 0.90300006
-0.11453135 0.24284741 0.90200007
-0.11193491 0.24257819 0.90100002
-0.10922246 0.24203974 0.89900005
-0.10675848 0.24203974 0.89900005
-0.10417847 0.24177049 0.89800006
-0.10171723 0.24177049 0.89800006
-0.099255979 0.24177049 0.89800006
-0.096902519 0.24203974 0.89900005
-0.094438531 0.24203974 0.89900005
-0.091872238 0.24177049 0.89800006
-0.089311421 0.24150127 0.89700001
-0.087046564 0.24203974 0.89900005
-0.084676661 0.24230896 0.90000004
-0.082209937 0.24230896 0.90000004
-0.079654604 0.24203974 0.89900005
-0.077190615 0.24203974 0.89900005
-0.074809752 0.24230896 0.90000004
-0.072343022 0.24230896 0.90000004
-0.069798648 0.24203974 0.89900005
-0.067409568 0.24230896 0.90000004
-0.064942837 0.24230896 0.90000004
-0.062545523 0.24257819 0.90100002
-0.060142729 0.24284741 0.90200007
-0.057670519 0.24284741 0.90200007
-0.055137113 0.24257819 0.90100002
-0.052726101 0.24284741 0.90200007
-0.050365321 0.24338588 0.90400004
-0.047940597 0.24365513 0.90500003
-0.045460165 0.24365513 0.90500003
-0.043027226 0.24392436 0.90600002
-0.040544052 0.24392436 0.90600002
-0.038102888 0.24419358 0.90700006
-0.035577703 0.24392436 0.90600002
-0.033131059 0.24419358 0.90700006
-0.030746507 0.24500129 0.91000003
-0.028283417 0.24527051 0.91100007
-0.025814844 0.24553975 0.91200006
-0.023366356 0.24607821 0.91400003
-0.020906905 0.24661668 0.91600007
-0.01843649 0.24715514 0.91800004
-0.01593777 0.24742438 0.91900003
-0.013448169 0.24796285 0.92100006
-0.010935744 0.24823207 0.92200005
-0.0084269578 0.24877055 0.92400002
-0.005932725 0.25038594 0.93000007
-0.0033874109 0.25065514 0.93100005
-0.00083661475 0.25092438 0.93200004
0.0017215061 0.25146285 0.93400002
0.004295174 0.25227055 0.93700004
0.0068926113 0.25334749 0.94100004
0.0094717136 0.25334749 0.94100004
0.012089235 0.25415519 0.94400007
0.014800937 0.25630903 0.95200002
0.01773937 0.26115522 0.97000003
0.020923678 0.26788601 0.99500006
0.024197483 0.27407837 1.018
-0.16338164 0.2779564 1.0220001
-0.15806654 0.27360484 1.006
-0.15191287 0.26762143 0.98400003
-0.14663799 0.26299787 0.96700007
-0.14220081 0.25973421 0.95500004
-0.13739093 0.2556546 0.94000006
-0.13251986 0.25130305 0.92400002
-0.12829921 0.24803936 0.91200006
-0.12510988 0.2466795 0.90700006
-0.12235358 0.24613556 0.90500003
-0.11987315 0.24613556 0.90500003
-0.117263 0.24586357 0.90400004
-0.11465833 0.24559161 0.90300006
-0.11205915 0.24531963 0.90200007
-0.10958693 0.24531963 0.90200007
-0.10699597 0.24504767 0.90100002
-0.10441048 0.24477568 0.90000004
-0.1018305 0.24450372 0.89900005
-0.099366508 0.24450372 0.89900005
-0.096902519 0.24450372 0.89900005
-0.094333485 0.24423175 0.89800006
-0.091769926 0.24395978 0.89700001
-0.089311421 0.24395978 0.89700001
-0.087046564 0.24450372 0.89900005
-0.084676661 0.24477568 0.90000004
-0.082118593 0.24450372 0.89900005
-0.079654604 0.24450372 0.89900005
-0.077276476 0.24477568 0.90000004
-0.074809752 0.24477568 0.90000004
-0.072343022 0.24477568 0.90000004
-0.069798648 0.24450372 0.89900005
-0.067334659 0.24450372 0.89900005
-0.064798512 0.24423175 0.89800006
-0.062476106 0.24477568 0.90000004
-0.06007605 0.24504767 0.90100002
-0.057606582 0.24504767 0.90100002
-0.055075921 0.24477568 0.90000004
-0.052667644 0.24504767 0.90100002
-0.050365321 0.24586357 0.90400004
-0.047887627 0.24586357 0.90400004
-0.045409936 0.24586357 0.90400004
-0.042979732 0.24613556 0.90500003
-0.0405888 0.2466795 0.90700006
-0.038102888 0.2466795 0.90700006
-0.03565624 0.24695148 0.90800005
-0.033204116 0.24722344 0.90900004
-0.030780295 0.24776739 0.91100007
-0.028283417 0.24776739 0.91100007
-0.025814844 0.24803936 0.91200006
-0.023340791 0.24831133 0.91300005
-0.020838432 0.24831133 0.91300005
-0.018396324 0.24912725 0.91600007
-0.015920427 0.24967121 0.91800004
-0.013448169 0.25048712 0.92100006
-0.010935744 0.25075909 0.92200005
-0.0084269578 0.25130305 0.92400002
-0.0059391041 0.25320685 0.93100005
-0.0033874109 0.25320685 0.93100005
-0.00083661475 0.25347883 0.93200004
0.0017215061 0.25402278 0.93400002
0.0042905901 0.25456673 0.93600005
0.0068779625 0.25538263 0.93900007
0.0094616478 0.2556546 0.94000006
0.012063622 0.25619856 0.94200003
0.014738748 0.25783041 0.94800007
0.017593067 0.26163802 0.96200007
0.020713389 0.26789337 0.98500007
0.024031097 0.27496469 1.011
-0.16602013 0.28048277 1.021
-0.16130339 0.27718624 1.0090001
-0.15523832 0.27141723 0.98800004
-0.14944273 0.26592296 0.96800005
-0.14481829 0.26235169 0.95500004
-0.1407118 0.25960454 0.94500005
-0.13607548 0.25575852 0.93100005
-0.13151592 0.25191256 0.91700006
-0.12787716 0.24971484 0.90900004
-0.12483402 0.248616 0.90500003
-0.12194799 0.24779184 0.90200007
-0.11947577 0.24779184 0.90200007
-0.11687385 0.24751714 0.90100002
-0.11440438 0.24751714 0.90100002
-0.11181068 0.24724242 0.90000004
-0.10946544 0.24751714 0.90100002
-0.10687722 0.24724242 0.90000004
-0.10429449 0.24696772 0.89900005
-0.10160396 0.24641828 0.89700001
-0.098924384 0.24586885 0.89500004
-0.096363567 0.24559414 0.89400005
-0.093913287 0.24559414 0.89400005
-0.091463 0.24559414 0.89400005
-0.08901272 0.24559414 0.89400005
-0.08665926 0.24586885 0.89500004
